<?xml version="1.0"?>
<opencv_storage>
<dframe type_id="opencv-matrix">
  <rows>35</rows>
  <cols>640</cols>
  <dt>w</dt>
  <data>
    0 0 0 0 0 0 0 0 0 0 0 0 0 0 0 0 0 0 0 0 0 0 0 0 0 0 0 0 0 0 0 0 0 0 0 0 0 0 0 0 0 0 0 0 0 0 0 0 0 0 0 0 0 0 0 0 0 0 0 2505 2505 2505 2505 2505 2487 2487 2487 2469 2469 2451 2451 2434 2434 2417 2400 2400 2384 2384 2367 2367 2351 2335 2335 2320 2320 2274 2274 2274 2274 2289 2274 2274 2289 2274 2289 3143 3143 3143 3115 3115 3115 3115 3143 3143 3143 3143 3172 3143 3172 3172 3172 3172 3172 3143 3143 3143 3143 3143 3143 3143 3172 3172 3172 3172 3172 3172 3172 3172 3172 3172 3172 3172 3172 3143 3143 3172 3172 3172 3143 3143 3143 1007 1013 1022 1022 1022 1019 1019 1019 1019 1019 1016 1016 1016 1016 1016 1019 1016 1019 1019 1019 1019 1022 1022 1022 1022 1022 1022 1022 1022 1022 1022 1022 1022 1025 1025 1025 1022 1022 1022 1019 1019 1019 1019 1022 1022 1022 1025 1028 1031 1034 1034 1034 1034 1034 1034 1034 1034 1034 1031 1031 1031 1031 1031 1031 1031 1031 1031 1031 1031 1028 1028 1025 1025 1022 1022 1019 1019 1019 1019 1019 1019 1019 1016 1016 1013 1013 1013 1010 1007 1007 1007 1007 1004 1001 1001 1001 998 998 998 998 998 995 995 995 995 995 995 995 995 995 995 995 995 995 993 993 993 993 995 995 993 993 993 990 990 990 990 987 990 987 987 987 987 987 987 987 984 984 984 984 981 981 978 981 978 978 978 978 978 978 978 978 978 978 981 981 978 981 981 981 978 978 976 976 976 976 976 973 973 973 970 970 968 965 965 965 965 962 965 959 959 959 959 959 959 959 959 962 962 962 962 965 968 970 970 970 970 970 973 973 973 973 973 973 973 973 973 973 976 976 978 978 981 981 981 984 984 984 987 990 993 993 995 995 995 995 995 993 993 990 987 987 984 984 981 978 978 976 976 976 976 973 973 973 973 970 970 968 965 965 962 962 962 959 959 959 959 954 952 952 952 952 952 949 949 946 944 944 941 939 936 936 936 936 933 933 931 928 928 926 926 923 921 921 921 919 919 916 916 914 914 911 909 909 909 907 907 904 904 902 902 902 899 899 899 899 897 897 897 897 897 897 897 895 892 892 892 892 892 892 892 801 801 799 798 796 794 794 792 792 790 790 790 790 788 788 787 787 785 783 785 783 783 783 781 781 781 783 783 783 783 783 783 783 783 783 785 785 787 785 785 785 787 788 790 792 796 796 796 798 798 801 803 805 811 811 813 818 820 820 822 822 824 0 0 0 0 0 0 0 0 0 0 0 0 0 0 0 0 0 0 0 0 0 0 0 0 0 0 0 0 0 0 0 0 0 0 0 3423 3390 3357 3357 3357 3357 3357 3357 3357 3357 3390 3390 3390 3390 3390 3390 3390 3390 3390 3390 3390 3390 3390 3390 3390 3423 3423 3423 3423 3423 3423 3423 3423 3357 3357 3357 3357 3390 3390 3423 3458 3458 3390 3493 3493 3423 3390 3390 3390 3357 3390 3357 3357 3357 3357 3357 3324 3293 3293 3324 3293 3262 3231 3201 3115 3087 3115 3115 3115 3087 3087 3115 3087 3087 3059 3059 3059 3033 3033 3006 2980
    0 0 0 0 0 0 0 0 0 0 0 0 0 0 0 0 0 0 0 0 0 0 0 0 0 0 0 0 0 0 0 0 0 0 0 0 0 0 0 0 0 0 0 0 0 0 0 0 0 0 0 0 0 0 0 0 0 0 2487 2505 2505 2487 2487 2505 2487 2487 2469 2469 2469 2451 2434 2417 2417 2400 2400 2384 2384 2367 2367 2351 2351 2320 2320 2320 2304 2289 2274 2274 2274 2289 2274 2259 2274 2259 3201 3143 3143 3143 3143 3115 3115 3143 3143 3143 3143 3143 3172 3172 3143 3143 3143 3143 3143 3143 3143 3143 3143 3172 3172 3172 3172 3172 3172 3172 3172 3172 3172 3172 3172 3172 3143 3172 3143 3172 3143 3172 3172 3172 3143 3172 1013 1010 1010 1019 1019 1016 1016 1016 1016 1016 1016 1016 1016 1013 1013 1013 1013 1013 1013 1013 1016 1016 1016 1019 1019 1022 1022 1022 1022 1022 1022 1022 1022 1022 1022 1025 1022 1022 1019 1019 1016 1016 1019 1019 1019 1022 1022 1025 1025 1028 1031 1031 1034 1034 1034 1034 1034 1034 1034 1031 1031 1028 1028 1028 1028 1028 1028 1028 1028 1028 1028 1025 1025 1022 1022 1019 1016 1016 1016 1016 1016 1016 1016 1016 1013 1013 1013 1013 1010 1007 1007 1007 1004 1001 1001 998 998 998 998 998 998 998 995 993 993 995 995 995 995 995 995 993 993 993 993 993 993 993 993 993 993 993 990 990 987 987 987 987 987 987 987 987 987 987 987 984 984 984 984 984 981 981 978 978 978 976 976 976 976 976 976 976 976 976 978 978 978 978 978 978 978 976 976 973 976 973 973 973 970 970 970 968 968 965 965 965 962 962 962 962 959 959 959 959 959 959 959 959 959 962 962 962 965 968 970 970 970 970 970 973 973 973 973 973 973 973 973 973 973 973 976 976 978 981 981 981 984 984 984 987 990 993 993 995 995 995 995 993 993 993 993 990 987 987 984 981 978 978 976 976 976 973 973 973 973 970 970 970 968 968 965 965 962 962 962 959 959 957 954 954 952 952 952 952 949 949 946 944 944 941 939 936 936 936 936 933 933 931 928 928 926 926 923 923 921 919 919 916 916 914 914 914 911 909 909 909 907 907 904 904 902 899 899 899 899 899 899 897 897 897 895 895 895 895 892 890 892 890 890 890 890 890 807 807 805 799 798 796 796 794 792 792 792 790 790 790 788 787 787 787 785 785 785 783 783 783 783 783 783 783 783 783 783 783 785 785 785 785 785 788 788 787 787 788 790 790 792 796 796 796 798 798 799 803 805 811 813 815 818 820 820 822 822 824 0 0 0 0 0 0 0 0 0 0 0 0 0 0 0 0 0 0 0 0 0 0 0 0 0 0 0 0 0 0 0 0 0 0 0 0 3390 3357 3324 3357 3357 3390 3357 3357 3390 3390 3390 3390 3390 3390 3390 3390 3390 3390 3390 3390 3390 3390 3390 3390 3423 3423 3458 3458 3423 3423 3423 3423 3357 3357 3357 3357 3390 3423 3423 3458 3458 3390 3458 3423 3390 3390 3390 3357 3357 3390 3357 3357 3357 3357 3357 3324 3293 3293 3293 3293 3262 3231 3201 3143 3143 3143 3087 3115 3087 3087 3087 3087 3087 3059 3059 3033 3033 3006 2980 2980
    0 0 0 0 0 0 0 0 0 0 0 0 0 0 0 0 0 0 0 0 0 0 0 0 0 0 0 0 0 0 0 0 0 0 0 0 0 0 0 0 0 0 0 0 0 0 0 0 0 0 0 0 0 0 0 0 0 0 2505 2523 2523 2505 2487 2505 2487 2487 2469 2451 2451 2434 2417 2400 2400 2384 2384 2367 2367 2351 2351 2335 2335 2320 2320 2304 2289 2274 2274 2274 2274 2289 2274 2274 3172 3172 3172 3115 3143 3143 3143 3115 3115 3143 3143 3143 3143 3143 3172 3172 3143 3143 3172 3172 3172 3143 3143 3143 3143 3172 3172 3172 3172 3172 3172 3172 3172 3172 3172 3172 3172 3172 3143 3143 3172 3172 3172 3172 3172 3172 3172 1016 1016 1013 1013 1013 1013 1013 1013 1013 1013 1013 1013 1013 1010 1010 1010 1010 1010 1010 1010 1010 1013 1013 1013 1016 1016 1019 1019 1019 1022 1022 1022 1022 1022 1022 1022 1022 1022 1022 1019 1019 1016 1016 1016 1019 1019 1019 1022 1025 1025 1025 1028 1028 1031 1031 1031 1034 1031 1031 1031 1028 1028 1028 1028 1025 1028 1028 1025 1025 1025 1025 1025 1022 1022 1019 1016 1016 1013 1013 1013 1013 1013 1013 1013 1013 1013 1013 1013 1010 1010 1007 1004 1004 1001 998 998 998 998 998 998 998 998 998 995 993 993 993 993 995 995 993 993 993 990 990 990 990 990 990 990 990 990 990 990 987 987 987 987 987 984 984 984 984 984 984 984 984 984 981 981 981 981 978 978 978 978 976 976 976 973 976 976 976 976 976 976 976 976 976 976 976 976 973 973 973 973 973 970 970 968 968 968 965 965 959 959 959 959 959 959 959 957 957 957 957 957 959 959 959 959 962 962 962 965 965 968 970 970 970 970 970 973 973 973 973 973 973 973 973 973 973 976 976 978 978 981 981 984 984 984 987 990 993 993 995 993 995 995 993 993 993 990 990 990 987 984 981 978 978 976 976 973 973 973 973 970 970 970 970 968 968 965 965 962 962 962 959 959 959 954 954 952 952 952 952 949 949 946 946 944 941 939 936 936 936 936 933 933 928 928 928 926 926 923 921 921 919 919 916 916 914 914 911 911 909 909 907 907 904 904 904 902 899 899 899 899 899 897 897 897 897 895 895 892 892 890 890 890 888 888 890 890 888 805 805 805 803 803 798 798 796 794 792 792 792 790 790 790 788 788 788 787 787 785 785 785 783 783 783 785 785 785 785 785 785 785 785 785 785 785 788 790 788 788 790 790 792 794 796 796 796 798 799 801 803 805 811 813 816 820 820 820 822 824 0 0 0 0 0 0 0 0 0 0 0 0 0 0 0 0 0 0 0 0 0 0 0 0 0 0 0 0 0 0 0 0 0 0 0 0 0 0 3324 3324 3324 3324 3357 3357 3357 3390 3390 3390 3390 3423 3390 3390 3390 3390 3390 3390 3390 3390 3390 3390 3390 3423 3423 3458 3458 3423 3458 3423 3423 3390 3357 3357 3357 3390 3390 3357 3357 3357 3357 3390 3423 3390 3390 3390 3390 3357 3390 3390 3357 3357 3357 3357 3324 3293 3293 3293 3293 3262 3231 3172 3143 3143 3143 3087 3115 3087 3087 3087 3087 3059 3059 3033 3033 3006 3006 2980 2980
    0 0 0 0 0 0 0 0 0 0 0 0 0 0 0 0 0 0 0 0 0 0 0 0 0 0 0 0 0 0 0 0 0 0 0 0 0 0 0 0 0 0 0 0 0 0 0 0 0 0 0 0 0 0 0 0 0 2505 2505 2505 2523 2505 2505 2505 2487 2487 2469 2451 2451 2434 2417 2400 2384 2384 2367 2367 2367 2351 2335 2335 2335 2304 2304 2289 2274 2274 2274 2274 2274 2274 2259 2259 0 3143 3143 3115 3143 3143 3143 3143 3143 3143 3143 3143 3143 3143 3172 3172 3172 3172 3172 3172 3172 3172 3143 3143 3172 3172 3172 3172 3172 3172 3172 3172 3172 3172 3172 3172 3172 3172 3143 3143 3143 3172 3143 3172 3172 3172 3143 1016 1013 1010 1010 1013 1010 1010 1010 1010 1010 1013 1010 1010 1007 1007 1007 1007 1007 1007 1010 1010 1010 1010 1013 1013 1013 1016 1019 1019 1019 1019 1019 1022 1022 1022 1022 1022 1019 1019 1019 1016 1013 1016 1016 1016 1016 1019 1019 1022 1025 1025 1025 1028 1028 1031 1031 1031 1031 1028 1031 1028 1028 1025 1025 1025 1025 1025 1025 1025 1025 1025 1025 1022 1019 1016 1016 1013 1013 1013 1013 1010 1013 1013 1013 1010 1010 1010 1010 1010 1007 1004 1001 1001 998 998 998 998 998 998 998 995 998 995 995 990 990 993 993 993 993 993 993 993 990 990 990 990 987 987 987 990 990 987 987 987 987 984 984 984 981 981 981 981 981 981 981 981 981 981 981 981 978 978 978 976 976 976 973 973 973 973 973 973 973 976 976 976 976 976 973 973 973 973 970 970 970 970 968 968 965 965 965 962 959 957 957 957 957 957 957 957 954 954 954 954 957 957 959 959 959 962 962 962 965 965 968 970 970 970 970 970 973 973 973 973 973 973 973 973 973 973 973 976 976 978 981 981 984 984 987 987 990 993 993 993 993 993 993 993 993 993 993 990 990 987 984 981 978 978 976 976 973 973 973 973 970 970 970 970 968 968 965 965 962 962 962 962 959 959 957 954 952 952 952 952 949 949 949 946 944 944 939 936 936 936 933 933 931 928 928 926 926 926 923 921 919 919 919 916 916 914 911 911 909 909 909 907 907 907 904 904 902 899 899 899 899 897 897 897 897 895 895 892 890 890 890 890 890 888 888 890 890 890 813 813 811 807 805 803 801 799 796 796 794 792 792 792 790 790 788 788 787 787 785 785 783 785 783 785 785 785 785 785 785 785 785 785 785 785 788 790 790 788 790 790 790 792 796 796 796 796 798 799 803 805 805 813 815 818 820 820 820 822 822 0 0 0 0 0 0 0 0 0 0 0 0 0 0 0 0 0 0 0 0 0 0 0 0 0 0 0 0 0 0 0 0 0 0 0 0 0 0 3293 3293 3324 3324 3357 3357 3357 3390 3390 3390 3390 3423 3423 3390 3390 3390 3390 3390 3390 3390 3390 3390 3390 3423 3423 3423 3458 3423 3423 3423 3423 3390 3357 3357 3357 3390 3390 3390 3357 3357 3357 3390 3423 3423 3390 3390 3390 3390 3390 3390 3357 3357 3357 3357 3293 3293 3262 3262 3262 3262 3231 3201 3172 3172 3143 3087 3087 3087 3059 3059 3059 3059 3033 3033 3033 3006 3006 2980 2980
    0 0 0 0 0 0 0 0 0 0 0 0 0 0 0 0 0 0 0 0 0 0 0 0 0 0 0 0 0 0 0 0 0 0 0 0 0 0 0 0 0 0 0 0 0 0 0 0 0 0 0 0 0 0 0 2599 2580 2542 2505 2523 2523 2523 2523 2505 2505 2487 2469 2451 2451 2434 2400 2400 2384 2384 2367 2351 2351 2351 2335 2335 2320 2304 2289 2274 2274 2274 2274 2274 2274 2274 2274 2274 3143 3143 3143 3143 3143 3143 3143 3143 3143 3143 3143 3143 3143 3143 3172 3172 3143 3172 3172 3172 3172 3143 3143 3172 3172 3172 3172 3172 3172 3172 3172 3172 3172 3172 3172 3172 3172 3143 3143 3143 3143 3143 3143 3143 3143 3172 1019 1013 1013 1013 1013 1010 1010 1010 1007 1007 1007 1010 1007 1007 1004 1004 1004 1004 1004 1007 1007 1007 1010 1010 1010 1013 1013 1013 1016 1016 1016 1019 1019 1019 1019 1019 1019 1019 1019 1019 1016 1016 1013 1013 1016 1016 1016 1019 1019 1022 1022 1025 1025 1025 1025 1028 1028 1028 1028 1028 1028 1025 1025 1025 1025 1025 1025 1025 1025 1022 1022 1022 1022 1019 1016 1016 1013 1013 1013 1010 1010 1010 1010 1010 1010 1010 1007 1007 1007 1004 1004 1001 998 998 995 995 995 995 995 995 995 995 995 995 993 990 990 993 993 993 993 990 990 990 990 987 987 987 987 987 987 987 987 987 984 984 984 984 981 981 978 978 978 978 978 978 978 978 978 978 978 978 978 976 976 976 976 973 973 973 973 973 973 973 973 973 973 976 973 973 973 973 973 970 968 968 968 968 968 965 965 965 962 959 959 954 957 954 954 954 954 957 954 954 954 954 957 957 959 959 959 959 962 962 965 965 968 968 970 970 970 970 970 970 973 973 973 973 973 973 973 973 973 973 976 978 978 981 984 984 987 987 990 993 993 993 993 993 993 993 993 993 993 990 990 987 984 981 978 978 976 976 973 973 973 973 970 970 970 970 970 968 965 965 965 962 962 962 959 959 957 954 952 952 952 952 949 949 949 946 944 944 939 936 936 936 933 933 931 928 928 928 926 926 923 921 919 919 916 916 916 914 911 911 909 909 909 907 907 904 904 902 902 899 899 899 899 897 897 897 895 895 892 892 890 890 890 890 888 888 888 888 890 888 890 815 811 807 807 805 801 799 798 798 796 794 794 794 792 790 790 790 788 788 787 785 785 785 785 785 785 785 785 785 785 785 787 787 787 788 790 790 790 790 792 790 790 792 796 796 796 796 798 799 803 805 807 813 816 818 820 820 820 822 824 0 0 0 0 0 0 0 0 0 0 0 0 0 0 0 0 0 0 0 0 0 0 0 0 0 0 0 0 0 0 0 0 0 0 0 0 0 0 0 3262 3293 3293 3324 3324 3357 3390 3390 3390 3390 3390 3423 3390 3390 3390 3390 3390 3390 3357 3357 3390 3390 3390 3423 3423 3423 3423 3423 3423 3423 3357 3357 3390 3357 3357 3357 3357 3324 3357 3357 3390 3423 3423 3390 3390 3390 3390 3357 3390 3357 3357 3357 3357 3293 3293 3262 3262 3262 3262 3231 3201 3143 3115 3087 3087 3087 3087 3059 3059 3033 3033 3033 3033 3033 3006 3006 2980 2980
    0 0 0 0 0 0 0 0 0 0 0 0 0 0 0 0 0 0 0 0 0 0 0 0 0 0 0 0 0 0 0 0 0 0 0 0 0 0 0 0 0 0 0 0 0 0 0 0 0 0 0 0 0 0 2599 2599 2599 2542 2542 2523 2523 2523 2523 2505 2469 2469 2469 2451 2434 2417 2400 2384 2384 2384 2367 2367 2351 2351 2335 2335 2304 2289 2274 2274 2274 2259 2259 2274 2274 2274 2274 0 3143 3143 3143 3143 3143 3143 3143 3143 3143 3143 3143 3143 3143 3143 3172 3172 3172 3172 3172 3172 3172 3143 3143 3143 3143 3172 3172 3172 3172 3172 3172 3172 3172 3172 3172 3172 3172 3143 3143 3143 3143 3143 3143 3143 3143 3172 1019 1013 1013 1013 1013 1010 1007 1007 1004 1004 1004 1007 1001 1001 1001 1001 1001 1001 1001 1001 1004 1004 1007 1007 1010 1010 1010 1013 1013 1013 1013 1016 1016 1016 1019 1019 1019 1016 1016 1016 1016 1013 1013 1013 1013 1016 1016 1019 1019 1022 1022 1022 1022 1022 1025 1025 1025 1025 1025 1025 1025 1025 1022 1025 1025 1022 1022 1022 1022 1022 1022 1022 1019 1016 1013 1013 1013 1010 1010 1010 1010 1010 1010 1007 1007 1004 1004 1004 1004 1001 1001 998 995 995 995 993 995 995 995 995 995 995 995 993 993 993 993 993 993 993 993 990 990 990 987 987 987 987 987 987 987 984 984 984 984 981 981 981 981 981 978 978 978 976 976 976 978 978 978 978 976 976 976 976 976 976 973 973 973 973 970 970 973 970 973 973 973 973 973 973 970 970 970 968 965 965 965 965 965 965 962 962 959 957 957 954 954 954 954 954 954 954 952 952 952 954 954 957 957 959 959 959 962 962 962 962 965 968 968 968 970 970 970 970 970 970 970 970 973 973 973 973 973 973 976 976 978 981 981 984 984 987 990 993 993 993 993 993 993 993 993 993 993 990 990 987 984 981 978 976 976 973 973 973 973 973 970 970 970 970 968 968 965 965 965 962 962 962 959 959 957 954 952 952 952 952 952 949 949 949 946 944 939 939 936 936 933 933 931 928 928 928 926 926 923 921 919 919 916 916 916 914 911 911 909 909 909 907 907 904 904 902 899 899 899 899 899 897 897 895 895 892 890 890 890 890 890 890 888 888 888 888 888 888 890 816 813 809 807 807 805 801 799 798 798 796 796 796 794 792 792 790 790 788 787 787 785 785 785 785 785 787 787 787 785 787 788 790 790 790 790 792 792 790 792 792 790 792 796 796 796 796 798 799 803 805 811 813 816 818 818 820 820 826 826 828 0 0 0 0 0 0 0 0 0 0 0 0 0 0 0 0 0 0 0 0 0 0 0 0 0 0 0 0 0 0 0 0 0 0 0 0 0 0 3262 3293 3293 3324 3324 3357 3357 3390 3390 3390 3390 3390 3390 3390 3390 3390 3390 3390 3357 3390 3357 3390 3390 3390 3423 3423 3423 3423 3423 3423 3390 3390 3357 3357 3357 3357 3324 3324 3357 3357 3390 3423 3423 3423 3423 3423 3390 3390 3357 3357 3357 3357 3324 3324 3293 3262 3293 3262 3231 3231 3201 3143 3115 3087 3087 3087 3087 3087 3059 3059 3033 3033 3033 3006 3006 3006 2980 2980
    0 0 0 0 0 0 0 0 0 0 0 0 0 0 0 0 0 0 0 0 0 0 0 0 0 0 0 0 0 0 0 0 0 0 0 0 0 0 0 0 0 0 0 0 0 0 0 0 0 0 0 0 0 0 2599 2599 2599 2580 2542 2542 2523 2523 2523 2487 2469 2469 2451 2434 2434 2417 2400 2384 2384 2367 2367 2351 2351 2335 2335 2320 2304 2289 2274 2274 2274 2274 2274 2274 2274 2259 2259 2201 2201 3172 3172 3143 3143 3143 3143 3143 3143 3143 3143 3172 3172 3172 3172 3172 3172 3172 3172 3172 3172 3172 3172 3172 3172 3172 3172 3172 3172 3172 3172 3172 3172 3172 3172 3172 3143 3143 3143 3143 3143 3172 3172 3172 1019 1019 1013 1013 1010 1010 1010 1007 1007 1004 1001 1001 1001 998 998 998 998 998 998 998 998 1001 1001 1004 1004 1007 1007 1007 1007 1010 1010 1010 1013 1013 1013 1016 1016 1016 1016 1016 1016 1016 1013 1013 1013 1013 1013 1013 1013 1016 1016 1019 1019 1019 1019 1019 1022 1022 1022 1022 1022 1022 1022 1022 1022 1022 1022 1022 1022 1022 1022 1019 1019 1019 1016 1013 1013 1010 1010 1010 1010 1007 1007 1007 1007 1004 1004 1004 1004 1001 1001 1001 998 995 993 990 990 990 990 993 993 993 993 993 993 990 990 990 990 990 990 990 990 990 987 987 987 987 987 987 984 984 984 981 981 978 981 978 978 978 978 978 976 976 976 976 976 976 978 976 978 978 976 976 976 976 976 973 973 973 973 970 970 970 970 970 970 973 973 973 970 970 968 968 968 965 965 965 965 965 962 962 962 959 957 954 954 954 954 954 954 954 954 954 952 952 952 954 954 957 959 959 959 959 962 962 962 962 965 965 968 968 968 970 970 970 970 970 970 970 970 970 973 973 973 973 976 976 978 981 981 984 987 987 990 993 993 993 993 993 993 993 993 993 993 993 990 990 987 981 978 976 976 973 973 973 973 970 970 970 970 970 970 968 968 968 965 962 962 962 959 959 954 954 952 952 952 952 952 949 949 949 946 944 941 939 936 936 936 933 931 931 928 928 926 926 923 921 919 919 916 916 916 914 911 911 909 909 909 907 907 904 902 902 899 899 899 897 897 897 897 895 895 892 890 890 890 890 888 888 888 888 888 888 888 888 890 890 811 811 809 807 805 801 799 799 798 798 796 796 794 792 792 790 790 790 787 787 787 787 787 787 787 787 787 787 788 788 788 790 790 790 792 792 792 792 792 792 794 794 796 796 796 796 798 801 803 805 811 813 816 816 818 818 820 826 826 830 0 0 0 0 0 0 0 0 0 0 0 0 0 0 0 0 0 0 0 0 0 0 0 0 0 0 0 0 0 0 0 0 0 0 0 0 0 0 3293 3293 3293 3324 3324 3357 3357 3390 3390 3390 3390 3390 3390 3390 3390 3390 3390 3390 3357 3357 3357 3357 3390 3390 3390 3423 3423 3423 3423 3423 3390 3390 3390 3357 3357 3357 3324 3357 3357 3357 3390 3390 3390 3390 3390 3390 3390 3357 3357 3357 3357 3357 3324 3293 3262 3262 3262 3262 3231 3231 3201 3143 3115 3087 3087 3087 3059 3059 3059 3033 3033 3033 3006 3006 3006 2980 2980 2980
    0 0 0 0 0 0 0 0 0 0 0 0 0 0 0 0 0 0 0 0 0 0 0 0 0 0 0 0 0 0 0 0 0 0 0 0 0 0 0 0 0 0 0 0 0 0 0 0 0 0 0 0 0 0 0 0 0 0 0 0 2523 2523 2523 2487 2469 2451 2451 2434 2434 2417 2400 2384 2384 2367 2367 2351 2351 2335 2320 2304 2289 2289 2274 2274 2274 2274 2259 2274 2274 2259 2215 2201 2201 3172 3172 3172 3172 3172 3172 3143 3143 3143 3143 3143 3143 3172 3172 3172 3172 3172 3172 3172 3172 3143 3172 3143 3172 3172 3172 3172 3172 3172 3172 3201 3172 3172 3172 3172 3143 3143 3143 3172 3172 3143 3143 3143 1022 1016 1013 1010 1007 1007 1007 1004 1001 1001 998 998 998 998 995 995 995 995 995 995 998 998 998 1001 1001 1004 1004 1007 1007 1010 1010 1010 1010 1013 1013 1013 1016 1016 1016 1016 1016 1016 1013 1013 1010 1010 1010 1010 1010 1013 1013 1016 1016 1016 1016 1016 1019 1019 1016 1019 1022 1019 1019 1022 1019 1022 1022 1022 1022 1022 1019 1019 1016 1016 1013 1010 1010 1010 1010 1007 1007 1007 1007 1004 1004 1004 1004 1004 1001 1001 1001 998 995 990 990 990 987 987 990 990 990 990 990 990 990 990 990 987 987 987 987 987 987 987 987 987 987 987 984 984 984 981 981 981 978 978 978 978 978 978 976 976 976 976 976 976 976 976 976 976 976 976 976 976 976 973 973 973 973 970 970 968 968 968 970 968 970 970 970 973 970 970 968 968 968 965 965 962 962 962 962 959 957 957 954 954 954 952 952 952 952 952 954 954 952 952 952 952 954 957 957 959 959 959 962 962 962 962 962 965 965 968 968 968 970 970 970 970 970 970 970 970 970 973 973 973 973 976 978 981 981 984 984 987 990 990 993 993 993 993 993 993 993 993 993 993 993 990 987 984 981 978 976 973 973 973 973 970 970 970 970 970 970 970 968 968 965 965 962 962 959 959 957 954 954 952 952 952 952 949 949 949 946 946 941 939 939 936 936 933 933 931 928 928 928 926 926 923 921 919 916 916 916 914 914 911 909 909 909 907 907 904 902 902 899 899 899 897 897 897 897 895 892 892 890 890 890 890 888 888 888 888 888 888 888 888 888 877 877 872 807 809 805 803 801 801 799 799 798 798 796 794 792 792 790 790 788 788 788 787 787 787 787 788 788 788 790 790 790 792 792 792 794 794 794 792 794 794 794 794 796 796 796 799 801 803 805 807 809 813 816 816 818 820 820 824 826 828 0 0 0 0 0 0 0 0 0 0 0 0 0 0 0 0 0 0 0 0 0 0 0 0 0 0 0 0 0 0 0 0 0 0 0 0 0 0 3293 3293 3293 3324 3324 3357 3357 3390 3390 3390 3390 3390 3390 3390 3390 3390 3390 3390 3390 3390 3390 3390 3423 3423 3423 3423 3423 3423 3423 3423 3390 3390 3390 3357 3357 3357 3324 3357 3357 3390 3390 3390 3390 3390 3390 3390 3390 3357 3357 3324 3324 3324 3324 3293 3293 3262 3262 3262 3231 3201 3172 3143 3087 3087 3087 3087 3059 3059 3059 3033 3033 3033 3006 3006 3006 3006 2980 2980
    0 0 0 0 0 0 0 0 0 0 0 0 0 0 0 0 0 0 0 0 0 0 0 0 0 0 0 0 0 0 0 0 0 0 0 0 0 0 0 0 0 0 0 0 0 0 0 0 0 0 0 0 0 0 0 0 0 0 0 0 2523 2523 2523 2505 2469 2469 2451 2434 2434 2417 2400 2384 2367 2351 2351 2335 2335 2335 2320 2304 2289 2289 2274 2274 2274 2274 2274 2274 2274 2259 2244 2215 2215 3201 3201 3172 3172 3172 3143 3143 3143 3143 3143 3143 3172 3172 3172 3172 3172 3172 3172 3172 3172 3172 3172 3172 3172 3172 3172 3172 3172 3172 3201 3172 3172 3172 3172 3172 3143 3143 3172 3172 3172 3143 3143 1019 1022 1013 1010 1007 1001 1001 1001 998 998 998 995 995 995 995 993 993 993 993 993 993 993 995 995 998 1001 1001 1004 1004 1007 1007 1007 1007 1010 1010 1010 1013 1013 1013 1013 1013 1013 1013 1013 1010 1010 1010 1010 1010 1010 1010 1010 1010 1013 1013 1016 1016 1016 1016 1016 1016 1019 1019 1019 1019 1019 1019 1019 1022 1019 1019 1016 1013 1013 1013 1010 1010 1010 1010 1007 1007 1007 1004 1004 1004 1004 1004 1004 1004 1001 1001 998 998 993 990 987 987 987 987 987 987 990 990 990 990 990 987 987 987 987 987 987 987 987 987 984 987 984 984 984 984 981 981 981 978 978 978 978 978 978 978 976 976 976 976 976 976 976 976 976 976 976 976 976 973 973 973 970 970 970 968 968 968 968 968 968 968 968 968 970 970 970 968 968 965 965 962 962 962 959 959 959 957 954 954 954 952 952 952 952 952 952 952 952 952 952 952 952 952 954 957 957 959 959 959 959 962 962 962 962 962 965 965 968 968 968 968 968 968 970 970 970 970 970 970 970 973 973 976 978 978 981 984 987 987 990 990 990 993 993 993 993 993 993 993 993 993 993 990 987 984 981 981 978 976 973 973 973 970 970 970 970 970 970 970 968 968 968 965 965 962 959 959 957 954 954 952 952 952 952 952 952 949 949 946 944 941 939 936 936 936 933 931 928 928 928 926 926 923 921 919 919 916 916 916 914 911 909 909 909 907 907 907 902 902 899 899 897 897 897 897 895 892 892 892 890 890 888 888 888 888 888 888 886 886 886 886 886 881 868 868 870 807 807 805 803 801 801 799 799 798 798 794 794 792 790 790 790 790 790 790 790 790 790 790 790 790 792 792 792 792 794 794 794 796 796 794 794 794 794 796 796 798 798 799 801 805 805 809 811 813 816 818 818 820 822 824 828 0 0 0 0 0 0 0 0 0 0 0 0 0 0 0 0 0 0 0 0 0 0 0 0 0 0 0 0 0 0 0 0 0 0 0 0 0 0 0 3262 3293 3293 3324 3324 3357 3357 3357 3357 3390 3390 3390 3390 3390 3390 3390 3390 3390 3390 3390 3390 3390 3390 3390 3390 3390 3423 3390 3423 3423 3390 3390 3390 3390 3357 3390 3324 3357 3357 3357 3357 3390 3390 3390 3390 3390 3357 3357 3357 3324 3324 3357 3293 3293 3293 3262 3262 3231 3231 3231 3201 3143 3115 3087 3059 3059 3059 3059 3059 3033 3033 3033 3006 3006 3006 3006 2980 2980
    0 0 0 0 0 0 0 0 0 0 0 0 0 0 0 0 0 0 0 0 0 0 0 0 0 0 0 0 0 0 0 0 0 0 0 0 0 0 0 0 0 0 0 0 0 0 0 0 0 0 0 0 0 0 0 0 0 0 0 0 2523 2523 2523 2505 2487 2469 2451 2417 2417 2400 2384 2384 2384 2351 2335 2335 2335 2335 2320 2304 2289 2289 2274 2274 2259 2259 2259 2274 2274 2259 2244 2244 2259 3172 3172 3172 3143 3143 3143 3143 3143 3143 3143 3143 3143 3172 3143 3172 3172 3172 3172 3172 3172 3143 3172 3172 3172 3172 3172 3172 3172 3172 3172 3172 3172 3172 3172 3172 3143 3143 3172 3172 3172 3172 1016 1016 1016 1016 1004 993 993 993 993 993 995 993 993 993 993 990 990 990 990 993 993 993 993 993 993 995 998 1001 1001 1004 1004 1004 1007 1007 1007 1010 1010 1010 1013 1013 1013 1013 1013 1013 1013 1010 1010 1010 1007 1007 1007 1007 1007 1010 1010 1013 1013 1013 1013 1013 1013 1016 1016 1016 1016 1016 1016 1016 1016 1019 1016 1016 1013 1013 1010 1010 1010 1007 1007 1007 1004 1004 1004 1004 1004 1004 1004 1001 1004 1001 1001 998 995 993 990 987 987 987 987 987 987 987 987 987 987 987 987 987 987 984 984 984 987 987 987 984 984 984 984 984 984 981 981 978 978 978 978 976 976 976 976 976 976 976 976 976 976 973 976 976 976 973 973 973 973 973 970 970 970 968 970 968 968 965 965 965 968 965 965 968 968 968 968 965 965 965 962 959 959 959 957 957 954 954 952 952 952 952 952 952 952 952 952 952 952 952 949 952 952 952 952 954 957 957 959 959 959 959 962 962 962 962 965 965 965 965 968 968 968 968 968 968 970 970 970 970 970 970 973 973 976 978 981 984 984 987 990 990 990 993 993 993 993 993 993 993 993 993 993 990 990 984 984 981 978 976 973 973 973 970 970 970 970 970 970 970 970 970 968 968 965 965 962 959 959 957 954 954 952 952 952 952 952 949 949 946 944 941 939 939 936 936 933 933 931 928 928 926 923 921 921 919 919 916 916 916 914 911 909 909 909 907 907 904 904 902 899 899 897 897 897 895 895 895 892 892 890 890 888 890 888 888 888 886 886 883 886 883 883 881 879 868 866 813 809 807 803 803 801 801 799 798 798 798 798 796 796 796 796 796 792 794 794 794 792 792 792 792 794 794 794 794 796 794 796 796 796 794 794 794 796 796 798 798 798 801 803 805 807 811 813 815 816 818 818 820 822 826 828 0 0 0 0 0 0 0 0 0 0 0 0 0 0 0 0 0 0 0 0 0 0 0 0 0 0 0 0 0 0 0 0 0 0 0 0 0 0 0 3262 3262 3293 3293 3324 3357 3357 3357 3390 3390 3390 3390 3390 3390 3390 3390 3390 3357 3357 3357 3357 3390 3390 3324 3390 3390 3390 3390 3423 3423 3390 3390 3390 3357 3357 3390 3324 3357 3357 3357 3357 3390 3390 3390 3390 3357 3357 3357 3357 3324 3357 3357 3324 3293 3293 3262 3262 3231 3231 3231 3201 3143 3115 3087 3087 3059 3059 3059 3059 3059 3059 3033 3033 3033 3006 3006 2980 2955
    0 0 0 0 0 0 0 0 0 0 0 0 0 0 0 0 0 0 0 0 0 0 0 0 0 0 0 0 0 0 0 0 0 0 0 0 0 0 0 0 0 0 0 0 0 0 0 0 0 0 0 0 0 0 0 0 0 0 0 0 2505 2505 2523 2487 2469 2469 2451 2417 2400 2400 2384 2400 2384 2367 2351 2351 2335 2335 2320 2304 2289 2274 2274 2274 2274 2274 2259 2274 2274 2259 2259 2259 2259 0 0 3201 3172 3143 3143 3143 3143 3143 3143 3143 3143 3143 3143 3172 3143 3143 3143 3143 3143 3143 3172 3143 3143 3143 3143 3172 3172 3172 3172 3172 3172 3172 3172 3172 3172 3143 3172 3172 3172 1004 1004 1001 1001 998 993 990 990 990 990 990 990 990 990 987 990 987 987 990 990 990 990 990 993 993 993 993 995 998 1001 1001 1001 1004 1004 1004 1004 1007 1007 1010 1010 1010 1013 1013 1013 1013 1013 1010 1010 1007 1007 1004 1004 1004 1004 1007 1010 1010 1010 1010 1013 1013 1013 1013 1016 1016 1016 1016 1016 1016 1016 1016 1013 1013 1013 1010 1010 1010 1007 1007 1007 1004 1004 1001 1004 1004 1001 1001 1001 1001 1001 998 998 995 993 990 990 987 984 984 984 984 984 984 987 987 987 987 984 984 984 984 984 984 987 984 984 984 984 984 984 984 981 981 978 978 978 976 976 976 976 976 976 976 976 976 976 973 973 973 973 973 973 973 970 970 970 970 968 968 968 968 968 965 965 965 965 965 965 965 965 965 965 965 965 965 962 962 959 957 957 954 954 954 952 952 952 949 952 949 949 952 952 952 952 952 952 952 949 949 952 952 954 954 957 957 957 959 959 959 962 962 962 962 962 962 965 965 965 968 968 968 968 968 968 970 970 970 970 970 970 973 976 976 981 984 984 987 990 990 990 993 993 993 993 993 993 993 993 993 993 993 990 987 984 981 978 976 976 973 973 973 970 970 970 970 970 970 970 970 968 968 965 965 962 959 959 959 954 954 954 952 952 952 952 952 949 949 944 941 939 939 936 936 933 933 931 928 928 926 926 923 921 919 919 919 916 916 914 911 909 909 909 907 907 904 902 902 899 897 897 897 897 895 895 892 892 892 890 890 890 890 888 888 888 886 886 883 883 883 881 879 879 870 868 870 870 870 805 805 803 801 801 799 799 799 798 798 798 798 798 798 798 798 796 796 794 794 794 794 796 794 796 796 796 796 796 796 796 794 796 796 796 796 798 799 799 803 805 807 809 811 813 813 816 818 820 820 822 826 828 832 0 0 0 0 0 0 0 0 0 0 0 0 0 0 0 0 0 0 0 0 0 0 0 0 0 0 0 0 0 0 0 0 0 0 0 0 0 0 3262 3293 3293 3324 3324 3357 3357 3357 3357 3390 3390 3390 3390 3390 3390 3390 3390 3357 3357 3357 3357 3357 3357 3293 3357 3357 3357 3357 3390 3390 3390 3390 3390 3357 3357 3390 3357 3357 3357 3357 3357 3390 3390 3390 3357 3357 3357 3357 3324 3324 3357 3357 3324 3293 3262 3262 3262 3231 3231 3231 3201 3143 3087 3087 3087 3059 3059 3059 3059 3059 3059 3033 3033 3033 3006 3006 2955 2930
    0 0 0 0 0 0 0 0 0 0 0 0 0 0 0 0 0 0 0 0 0 0 0 0 0 0 0 0 0 0 0 0 0 0 0 0 0 0 0 0 0 0 0 0 0 0 0 0 0 0 0 0 0 0 0 0 0 0 0 0 2469 2505 2505 2469 2451 2451 2417 2400 2400 2400 2384 2384 2384 2367 2351 2351 2335 2335 2320 2304 2304 2289 2274 2274 2274 2274 2274 2274 2274 2274 2274 2274 2274 0 3172 3172 3143 3143 3115 3143 3115 3115 3143 3143 3143 3143 3143 3143 3143 3143 3143 3143 3143 3143 3143 3143 3143 3143 3143 3143 3172 3172 3172 3172 3172 3172 3172 3172 3143 3143 3172 3172 1001 1001 1001 995 995 995 990 990 990 990 987 987 987 987 987 987 987 987 987 987 987 987 987 990 990 990 990 990 993 995 995 998 998 1001 1001 1004 1004 1004 1007 1007 1010 1010 1010 1013 1013 1013 1010 1010 1007 1007 1004 1004 1004 1001 1001 1004 1007 1007 1010 1010 1010 1013 1013 1013 1013 1013 1016 1016 1016 1013 1013 1013 1013 1010 1010 1010 1010 1007 1007 1004 1004 1004 1001 1001 1001 1001 1001 1001 1001 998 998 995 995 993 990 990 990 984 984 984 984 984 984 984 984 984 984 984 984 984 984 984 984 984 984 984 984 984 984 984 981 981 981 978 978 976 976 976 976 976 976 976 976 976 976 976 976 973 973 973 973 973 970 970 968 968 968 968 965 965 965 965 965 965 962 962 962 962 962 962 962 962 962 962 962 962 959 959 957 957 957 954 954 952 952 949 949 946 949 949 949 949 949 949 949 949 952 952 949 949 952 952 952 954 954 957 957 959 959 959 959 962 962 962 962 962 962 965 965 965 965 968 968 968 968 968 970 970 970 970 970 973 976 976 978 981 984 987 987 990 990 993 993 993 993 993 993 993 993 993 993 993 990 987 984 981 978 976 976 976 973 973 973 973 973 973 970 970 970 970 970 968 968 965 962 962 959 959 957 954 954 952 952 952 952 952 952 949 944 941 939 939 939 936 936 936 933 931 928 926 926 923 921 921 919 919 919 916 914 911 911 909 909 907 907 904 902 902 899 899 897 897 897 895 895 895 892 892 890 890 890 890 888 888 888 886 883 883 883 883 881 881 879 872 870 870 872 872 807 807 805 803 803 799 799 799 799 799 799 799 799 799 799 798 798 798 796 796 796 796 796 796 796 796 796 796 798 798 796 796 796 796 796 796 799 801 801 803 805 807 809 811 811 813 816 818 820 820 824 826 826 830 0 0 0 0 0 0 0 0 0 0 0 0 0 0 0 0 0 0 0 0 0 0 0 0 0 0 0 0 0 0 0 0 0 0 0 0 0 0 3262 3293 3293 3324 3324 3324 3357 3357 3357 3390 3390 3390 3390 3390 3390 3390 3357 3357 3357 3357 3357 3357 3324 3324 3324 3357 3357 3357 3390 3390 3357 3390 3390 3357 3390 3390 3357 3357 3357 3357 3357 3390 3357 3390 3357 3357 3357 3357 3324 3324 3324 3324 3293 3293 3262 3262 3262 3231 3231 3201 3172 3143 3115 3115 3087 3087 3059 3087 3087 3059 3059 3033 3033 3033 3006 2980 2955 2930
    0 0 0 0 0 0 0 0 0 0 0 0 0 0 0 0 0 0 0 0 0 0 0 0 0 0 0 0 0 0 0 0 0 0 0 0 0 0 0 0 0 0 0 0 0 0 0 0 0 0 0 0 0 0 0 0 0 0 0 2469 2469 2469 2469 2451 2451 2434 2417 2400 2400 2384 2384 2384 2367 2351 2351 2351 2335 2335 2320 2304 2304 2289 2274 2274 2274 2274 2274 2274 2274 2274 0 0 0 0 3172 3172 3143 3115 3115 3115 3115 3115 3115 3143 3143 3143 3143 3143 3143 3143 3143 3143 3143 3143 3143 3143 3143 3143 3143 3143 3172 3172 3172 3172 3172 3172 3172 3172 3143 3143 3172 3201 995 995 995 993 993 993 990 987 987 987 984 984 984 984 984 981 981 981 984 984 984 987 987 987 987 990 990 990 990 990 993 995 995 998 998 1001 1001 1004 1004 1007 1007 1010 1010 1010 1010 1010 1010 1010 1007 1004 1004 1001 1001 1001 1001 1001 1004 1007 1007 1010 1010 1010 1013 1013 1013 1013 1013 1013 1013 1010 1010 1010 1010 1007 1010 1007 1007 1007 1004 1004 1001 1001 1001 1001 998 998 998 998 998 995 995 993 993 990 990 987 987 984 984 984 984 984 984 984 984 984 984 984 984 984 984 984 984 984 984 984 984 984 981 981 981 981 978 976 976 976 976 973 976 976 976 976 976 976 976 976 976 973 973 973 973 970 968 968 968 968 965 965 965 965 965 965 962 962 962 959 959 959 959 959 959 959 959 959 959 959 957 957 957 954 954 952 952 949 949 946 946 946 946 946 946 949 949 949 949 949 949 952 949 949 952 952 952 954 954 957 957 959 959 959 959 962 962 962 962 962 962 962 962 965 965 965 965 965 968 968 968 968 970 970 970 973 973 976 978 981 984 987 987 990 990 993 993 993 993 993 993 993 993 993 993 993 990 987 984 981 981 978 978 976 976 973 973 973 973 973 973 970 970 970 970 970 968 968 962 962 962 959 957 957 954 954 952 952 954 952 952 952 949 944 941 939 939 939 936 936 933 931 931 928 926 923 921 921 919 919 919 916 916 914 911 909 909 909 907 907 902 902 899 897 897 897 897 895 895 895 892 892 890 890 890 888 888 888 886 883 883 883 883 881 881 879 879 874 872 872 872 872 813 811 807 807 805 803 801 801 801 801 801 799 799 799 799 799 799 798 798 798 798 798 798 798 798 798 798 798 798 798 798 796 798 798 798 798 801 801 803 803 807 809 809 811 813 813 816 818 820 822 824 826 828 830 834 0 0 0 0 0 0 0 0 0 0 0 0 0 0 0 0 0 0 0 0 0 0 0 0 0 0 0 0 0 0 0 0 0 0 0 0 0 3231 3262 3293 3324 3324 3357 3357 3357 3357 3357 3390 3390 3390 3390 3390 3357 3357 3357 3357 3357 3357 3357 3324 3324 3324 3357 3357 3357 3390 3390 3357 3390 3390 3357 3357 3357 3357 3357 3357 3357 3357 3390 3357 3357 3357 3324 3324 3324 3293 3293 3293 3293 3262 3262 3262 3262 3262 3231 3201 3201 3143 3143 3115 3115 3087 3087 3087 3087 3087 3087 3059 3059 3033 3033 3006 2980 2955 2930
    0 0 0 0 0 0 0 0 0 0 0 0 0 0 0 0 0 0 0 0 0 0 0 0 0 0 0 0 0 0 0 0 0 0 0 0 0 0 0 0 0 0 0 0 0 0 0 0 0 0 0 0 0 0 0 0 0 0 2487 2469 2469 2469 2469 2451 2451 2434 2417 2400 2400 2384 2384 2384 2367 2367 2351 2351 2335 2320 2320 2304 2289 2289 2274 2274 2274 2274 2274 2274 0 0 0 0 0 0 3172 3115 3115 3115 3087 3115 3115 3115 3115 3115 3115 3143 3115 3143 3143 3143 3115 3115 3115 3115 3143 3143 3143 3143 3143 3143 3172 3172 3172 3143 3143 3143 3143 3143 3143 3143 3172 993 993 993 993 993 990 990 987 987 984 987 981 981 981 981 978 978 978 978 981 981 981 984 984 984 984 987 987 987 990 990 993 993 993 995 998 1001 1001 1001 1004 1004 1007 1007 1010 1010 1010 1010 1010 1010 1007 1004 1001 1001 1001 998 1001 1001 1004 1004 1007 1007 1010 1010 1010 1010 1013 1013 1013 1010 1010 1010 1010 1010 1007 1007 1007 1007 1007 1004 1001 1001 1001 1001 998 998 998 998 998 995 995 995 993 990 987 987 987 987 984 984 981 981 981 981 981 984 984 984 984 984 984 984 984 984 981 981 984 981 981 981 981 978 978 978 976 976 976 973 973 973 973 973 973 973 973 976 976 976 973 970 970 970 970 968 965 965 965 965 965 965 962 962 962 962 962 959 959 959 957 957 957 957 959 957 957 957 957 957 957 954 954 954 952 952 949 946 944 944 944 944 944 944 944 946 946 946 949 949 949 949 949 949 949 952 952 952 954 957 957 959 959 959 959 962 962 962 962 962 962 962 962 962 962 962 965 965 965 965 968 968 968 970 970 973 973 976 978 981 984 987 987 990 990 993 993 993 993 993 993 993 995 995 993 993 990 987 984 984 981 981 978 978 978 976 976 973 973 973 973 973 973 970 970 970 968 968 965 962 962 959 959 957 957 957 954 954 954 954 954 957 952 946 941 941 939 939 939 936 936 933 931 926 926 923 921 921 919 919 919 916 916 914 914 911 909 909 907 907 904 902 899 899 897 897 897 895 895 895 892 892 892 890 890 888 888 888 886 883 883 881 881 881 881 879 877 874 872 872 872 872 815 811 809 809 807 805 805 803 803 803 803 801 801 799 799 799 799 799 798 798 798 798 798 798 798 798 798 798 798 799 799 798 798 798 799 799 803 803 805 807 807 809 811 811 813 815 816 818 820 824 826 826 828 832 834 0 0 0 0 0 0 0 0 0 0 0 0 0 0 0 0 0 0 0 0 0 0 0 0 0 0 0 0 0 0 0 0 0 0 0 0 0 3262 3262 3293 3324 3324 3324 3324 3357 3357 3357 3390 3390 3390 3357 3390 3390 3357 3357 3357 3390 3390 3357 3357 3293 3293 3357 3357 3357 3357 3390 3357 3357 3390 3357 3357 3357 3357 3357 3357 3357 3357 3390 3357 3357 3357 3324 3324 3293 3293 3293 3262 3262 3262 3262 3262 3262 3231 3231 3201 3172 3143 3115 3115 3115 3087 3087 3087 3059 3087 3059 3059 3033 3033 3006 3006 2980 2955 2930
    0 0 0 0 0 0 0 0 0 0 0 0 0 0 0 0 0 0 0 0 0 0 0 0 0 0 0 0 0 0 0 0 0 0 0 0 0 0 0 0 0 0 0 0 0 0 0 0 0 0 0 0 0 0 0 0 0 0 2487 2469 2469 2469 2469 2451 2451 2434 2417 2400 2400 2400 2384 2384 2367 2367 2351 2335 2320 2320 2320 2304 2289 2274 2274 2274 2274 2274 2274 2274 0 0 0 0 0 0 3087 3087 3087 3087 3087 3115 3087 3087 3115 3115 3115 3115 3115 3115 3115 3115 3115 3115 3115 3115 3143 3143 3143 3143 3143 3143 3172 3172 3143 3143 3143 3143 3143 3143 3172 3172 993 990 993 990 990 990 987 987 984 984 981 984 981 978 978 978 978 978 978 978 978 978 978 981 981 981 984 984 987 987 987 990 990 993 993 995 995 998 1001 1001 1001 1004 1004 1007 1007 1010 1010 1010 1010 1010 1007 1004 1001 1001 1001 998 998 1001 1001 1004 1004 1007 1007 1010 1010 1010 1010 1010 1010 1007 1007 1007 1007 1007 1004 1004 1004 1007 1004 1001 1001 1001 998 998 998 998 998 995 995 993 993 990 990 987 987 987 984 984 984 981 981 981 981 981 978 981 984 984 984 984 984 984 984 984 981 981 981 981 981 981 978 978 976 976 976 976 973 973 973 973 973 973 970 970 970 973 973 973 970 968 968 968 968 965 965 965 965 965 965 962 962 962 962 962 959 959 957 957 957 957 957 957 957 957 957 954 954 954 954 954 954 952 952 949 949 944 944 944 944 944 944 944 944 944 944 946 946 946 946 949 946 949 949 949 952 952 952 954 957 957 959 959 959 959 959 962 962 962 962 962 962 962 962 962 962 962 962 965 965 968 968 970 970 970 973 973 976 981 984 984 987 987 990 993 993 993 993 993 993 995 995 995 995 993 990 987 984 984 981 981 981 978 978 978 976 976 976 976 973 973 973 970 970 970 968 968 965 965 962 962 959 959 959 957 954 954 957 954 957 957 952 949 946 941 941 939 939 939 936 933 933 928 926 923 923 921 921 919 919 916 916 916 914 911 911 909 909 907 907 904 902 899 899 897 897 895 895 895 892 892 892 890 890 888 888 888 886 883 883 881 881 881 879 879 877 874 874 874 872 872 815 813 811 811 809 807 805 805 805 803 803 801 801 801 801 801 799 799 798 798 798 798 798 798 798 798 799 798 799 799 799 798 799 799 801 801 803 805 805 807 807 809 811 813 813 815 818 818 822 824 826 826 828 832 832 836 0 0 0 0 0 0 0 0 0 0 0 0 0 0 0 0 0 0 0 0 0 0 0 0 0 0 0 0 0 0 0 0 0 0 0 0 3231 3262 3262 3293 3293 3324 3324 3324 3357 3357 3357 3357 3390 3357 3390 3390 3357 3357 3357 3390 3390 3357 3357 3293 3324 3357 3357 3357 3357 3390 3357 3357 3390 3357 3357 3357 3357 3390 3357 3357 3357 3357 3357 3357 3324 3324 3324 3293 3293 3262 3262 3262 3262 3262 3262 3262 3262 3231 3201 3172 3143 3115 3115 3115 3087 3087 3087 3087 3087 3059 3059 3033 3033 3006 3006 2980 2955 2930
    0 0 0 0 0 0 0 0 0 0 0 0 0 0 0 0 0 0 0 0 0 0 0 0 0 0 0 0 0 0 0 0 0 0 0 0 0 0 0 0 0 0 0 0 0 0 0 0 0 0 0 0 0 0 0 0 2523 2505 2487 2469 2469 2469 2469 2451 2451 2434 2417 2400 2400 2400 2384 2384 2367 2367 2351 2335 2335 2320 2320 2304 2289 2274 2274 2274 2274 2274 2274 2274 0 0 0 0 0 3006 3059 3087 3087 3087 3087 3087 3115 3115 3115 3143 3115 3115 3115 3115 3115 3115 3115 3115 3115 3115 3143 3143 3143 3143 3143 3143 3143 3143 3143 3143 3143 3143 3143 3115 3115 3172 993 990 990 990 990 987 984 984 981 978 978 978 978 978 978 978 978 978 978 978 978 978 978 978 978 978 981 981 984 984 987 987 990 990 990 993 995 998 998 998 1001 1001 1004 1007 1007 1007 1007 1010 1010 1010 1007 1004 1001 998 998 998 998 1001 1001 1001 1004 1004 1007 1010 1010 1010 1010 1010 1010 1007 1004 1004 1004 1007 1004 1004 1004 1004 1001 1001 998 998 998 995 995 995 995 993 993 990 990 987 987 987 984 984 984 984 984 981 981 978 978 978 978 978 981 981 981 984 984 981 984 984 981 981 981 981 978 978 978 976 976 976 976 973 973 970 970 970 970 970 968 968 968 970 968 968 968 965 965 965 965 965 962 962 962 962 962 962 962 959 959 959 959 957 957 954 954 954 954 954 954 954 954 954 954 954 954 954 952 952 949 949 944 941 941 941 941 941 941 944 944 944 944 944 946 946 946 949 946 949 949 949 949 952 952 954 954 957 957 959 959 959 959 959 959 959 962 962 962 962 962 962 962 962 962 965 965 968 968 968 970 970 973 973 976 978 984 984 987 987 990 993 993 993 995 995 995 995 995 995 995 993 990 987 984 984 981 981 981 981 981 978 978 978 976 976 976 973 973 973 970 970 970 968 965 965 962 962 959 959 959 959 957 957 957 954 957 959 954 952 952 946 944 941 939 939 936 936 933 928 928 923 923 921 921 919 919 916 916 916 914 911 911 909 909 907 907 904 902 902 899 897 897 897 897 895 895 892 892 892 890 888 888 888 886 886 883 883 881 881 879 879 877 874 874 874 872 870 816 815 813 811 811 809 807 807 807 805 805 803 803 803 801 801 801 799 799 799 799 798 798 798 798 799 799 799 799 801 801 799 801 801 801 803 805 805 805 807 807 809 811 813 815 815 818 820 822 822 826 828 828 832 834 834 0 0 0 0 0 0 0 0 0 0 0 0 0 0 0 0 0 0 0 0 0 0 0 0 0 0 0 0 0 0 0 0 0 0 0 0 3231 3231 3262 3293 3293 3293 3293 3324 3324 3324 3324 3324 3357 3357 3357 3390 3390 3357 3357 3390 3390 3357 3357 3324 3324 3357 3357 3357 3357 3357 3324 3357 3357 3357 3357 3357 3357 3357 3324 3357 3324 3357 3324 3357 3324 3324 3293 3293 3293 3262 3262 3262 3262 3262 3262 3262 3231 3231 3231 3201 3143 3143 3115 3115 3087 3087 3087 3087 3087 3059 3059 3059 3033 3006 2980 2955 2955 2930
    0 0 0 0 0 0 0 0 0 0 0 0 0 0 0 0 0 0 0 0 0 0 0 0 0 0 0 0 0 0 0 0 0 0 0 0 0 0 0 0 0 0 0 0 0 0 0 0 0 0 0 0 0 0 0 0 2523 2505 2487 2469 2469 2469 2469 2451 2451 2417 2400 2400 2400 2400 2384 2384 2367 2367 2351 2335 2320 2320 2304 2289 2289 2274 2274 2259 2274 2259 2274 0 0 0 0 0 3059 3059 3087 3087 3087 3087 3087 3087 3115 3115 3143 3143 3115 3115 3115 3115 3115 3115 3115 3115 3115 3115 3143 3143 3143 3143 3143 3143 3143 3143 3143 3115 3115 3115 3143 3115 3115 993 990 990 990 987 987 981 978 978 976 976 976 976 976 976 976 976 976 976 976 976 976 978 976 978 978 978 978 978 981 981 984 987 987 990 990 990 993 995 998 998 1001 1001 1004 1004 1007 1007 1007 1010 1010 1010 1007 1004 1001 998 998 995 998 998 998 1001 1001 1004 1004 1007 1007 1007 1007 1007 1007 1004 1001 1004 1004 1004 1004 1001 1004 1004 1001 998 998 998 995 995 993 993 993 993 990 990 987 987 987 984 984 981 984 981 981 981 978 978 978 978 978 978 978 978 981 981 981 981 981 981 981 978 978 978 976 978 976 976 976 976 973 973 970 970 968 968 968 968 965 965 965 965 965 965 965 965 965 965 962 962 962 962 962 962 962 959 959 959 957 957 957 957 954 954 954 954 954 954 954 954 954 954 954 954 952 952 952 949 946 944 941 941 941 941 941 941 941 941 941 944 944 944 944 946 946 949 946 949 949 949 949 952 952 952 954 957 957 959 959 959 959 959 959 959 959 962 962 962 962 962 962 962 962 965 965 968 968 968 970 970 973 973 976 978 981 984 987 990 993 993 995 995 995 995 995 995 995 995 995 995 993 990 984 984 981 981 981 981 981 981 981 978 978 978 976 973 973 973 970 970 970 968 965 965 962 962 959 959 959 959 957 957 957 957 959 959 957 954 954 952 949 944 941 941 939 939 936 931 928 926 923 923 921 921 919 919 916 916 916 914 911 911 909 909 907 907 904 902 899 899 899 897 897 897 895 895 892 892 890 888 888 888 886 886 883 883 881 881 879 877 877 874 874 874 874 872 872 816 815 815 813 813 809 809 809 807 807 805 805 805 803 803 801 801 801 801 801 799 799 799 799 801 801 801 801 803 803 799 801 801 803 805 805 807 807 809 809 809 811 813 815 815 818 820 824 822 826 828 830 832 834 836 838 0 0 0 0 0 0 0 0 0 0 0 0 0 0 0 0 0 0 0 0 0 0 0 0 0 0 0 0 0 0 0 0 0 0 0 3172 3201 3231 3262 3262 3293 3293 3324 3324 3324 3324 3324 3324 3324 3357 3357 3357 3357 3357 3390 3390 3390 3357 3357 3357 3357 3357 3357 3357 3357 3357 3357 3357 3357 3357 3357 3357 3357 3324 3324 3324 3357 3324 3324 3262 3324 3293 3262 3262 3262 3262 3262 3262 3262 3262 3262 3231 3231 3231 3201 3143 3115 3115 3115 3087 3087 3087 3087 3087 3087 3059 3033 3006 2980 2955 2955 2930 2930
    0 0 0 0 0 0 0 0 0 0 0 0 0 0 0 0 0 0 0 0 0 0 0 0 0 0 0 0 0 0 0 0 0 0 0 0 0 0 0 0 0 0 0 0 0 0 0 0 0 0 0 0 0 0 0 0 2523 2505 2487 2469 2469 2469 2469 2451 2451 2417 2400 2400 2400 2400 2384 2384 2367 2367 2351 2335 2320 2304 2289 2289 2274 2274 2274 2259 2259 2259 2274 2274 0 0 3087 3087 3087 3059 3087 3087 3087 3087 3087 3087 3087 3115 3115 3115 3115 3115 3115 3115 3115 3115 3115 3115 3115 3143 3143 3143 3143 3143 3115 3115 3143 3115 3115 3115 3115 3115 3115 3087 984 987 987 987 984 984 981 978 976 976 970 970 970 970 973 973 973 976 976 976 976 976 976 976 976 976 976 976 978 978 978 981 984 984 987 987 987 990 990 993 995 995 998 1001 1001 1004 1004 1007 1007 1010 1010 1007 1004 1001 1001 995 995 995 995 995 995 998 998 1001 1001 1004 1004 1004 1004 1004 1004 1001 1001 1001 1001 1001 1001 1001 1001 1001 998 998 995 995 995 993 993 993 990 990 990 987 987 984 984 984 981 981 981 981 981 978 978 976 976 976 976 976 976 976 978 978 978 978 978 981 978 978 978 978 976 976 976 976 976 973 973 973 970 968 968 965 965 965 965 965 965 965 965 965 965 962 965 962 962 962 962 962 959 959 959 959 959 957 957 957 954 954 954 954 954 954 954 954 954 954 954 954 952 952 952 952 949 946 944 941 939 939 939 939 939 941 941 941 941 944 944 944 944 944 946 949 946 949 949 949 949 952 952 952 954 954 957 957 959 959 959 959 959 959 959 962 959 959 962 962 962 962 962 965 965 968 968 968 970 970 970 973 976 978 981 987 990 990 993 995 995 995 995 995 995 998 998 995 995 995 993 990 987 984 984 981 981 981 981 981 981 981 981 978 978 976 973 973 973 970 970 970 968 968 965 962 962 959 959 959 959 959 957 957 959 959 957 954 954 954 949 946 944 944 941 941 939 931 931 928 926 926 923 921 921 919 919 919 916 914 914 911 909 909 907 907 904 904 902 899 899 899 897 897 895 895 892 892 890 888 888 888 888 886 883 883 881 881 879 879 877 877 877 874 874 872 872 818 816 816 816 815 813 811 811 809 807 807 805 805 805 805 803 799 799 799 803 801 801 801 801 803 803 805 805 805 805 803 803 803 805 805 807 809 809 811 811 811 811 813 815 815 818 820 824 824 826 828 830 834 834 836 840 840 0 0 0 0 0 0 0 0 0 0 0 0 0 0 0 0 0 0 0 0 0 0 0 0 0 0 0 0 0 0 0 0 0 0 0 3201 3231 3262 3262 3293 3293 3293 3324 3293 3324 3324 3324 3324 3357 3357 3357 3357 3390 3390 3390 3357 3357 3357 3357 3357 3357 3357 3357 3357 3324 3357 3357 3357 3357 3357 3357 3357 3357 3357 3357 3357 3357 3357 3357 3357 3324 3262 3262 3231 3262 3262 3262 3231 3262 3231 3231 3231 3201 3172 3143 3115 3115 3115 3087 3087 3087 3033 3033 3006 3059 3033 3006 2980 2980 2955 2930 2930
    0 0 0 0 0 0 0 0 0 0 0 0 0 0 0 0 0 0 0 0 0 0 0 0 0 0 0 0 0 0 0 0 0 0 0 0 0 0 0 0 0 0 0 0 0 0 0 0 0 0 0 0 0 0 0 0 2505 2487 2469 2469 2451 2451 2451 2451 2434 2417 2400 2400 2400 2384 2384 2384 2367 2351 2335 2320 2304 2304 2289 2274 2274 2259 2259 2259 2259 2259 2259 2201 0 0 0 3033 3033 3033 3059 3087 3087 3087 3087 3087 3087 3087 3115 3115 3087 3115 3115 3115 3115 3115 3115 3115 3115 3115 3115 3143 3143 3143 3115 3115 3143 3115 3115 3087 3087 3087 3087 3059 978 976 981 981 978 976 976 973 973 973 968 968 968 968 970 970 973 973 973 976 976 976 976 976 976 976 976 976 976 978 978 978 981 984 984 987 987 987 990 993 993 995 998 998 1001 1004 1001 1004 1004 1007 1007 1007 1004 1001 998 995 993 993 993 993 993 995 995 998 998 1001 1001 1001 1001 1001 1001 1001 998 998 1001 1001 1001 998 998 998 995 995 995 993 993 990 990 990 990 990 987 987 984 984 981 981 981 978 978 978 978 976 976 976 976 976 976 976 976 976 976 976 978 978 978 978 978 976 976 976 976 976 976 973 973 973 973 970 968 968 965 965 965 965 965 962 965 965 962 962 962 962 962 962 962 959 959 959 959 959 957 957 957 957 954 954 954 954 954 952 954 954 952 952 952 952 952 952 952 952 949 949 946 944 941 939 939 936 939 939 939 941 941 941 941 941 944 944 944 944 946 946 946 946 949 949 949 949 952 952 954 954 957 957 957 959 959 959 959 959 959 959 959 959 959 959 962 962 962 962 965 965 968 968 970 970 973 973 976 978 981 984 990 990 993 995 995 995 995 998 998 998 998 998 995 995 993 990 987 984 984 984 984 984 984 984 984 984 981 981 978 978 976 973 973 973 970 970 970 968 965 965 962 962 962 962 959 959 957 957 959 959 957 957 957 954 954 949 944 944 944 941 939 933 931 928 928 926 926 923 921 921 919 919 916 916 914 911 911 909 909 907 907 904 902 899 899 899 897 897 897 895 895 892 890 888 888 888 888 886 883 883 881 881 879 879 877 877 877 874 874 872 872 818 818 818 818 816 815 815 813 811 811 809 807 807 807 805 805 803 805 805 805 803 803 803 805 805 805 805 805 805 805 803 803 805 805 807 809 809 811 811 811 811 811 813 815 816 820 822 824 826 828 828 830 834 834 836 838 838 840 0 0 0 0 0 0 0 0 0 0 0 0 0 0 0 0 0 0 0 0 0 0 0 0 0 0 0 0 0 0 0 0 0 0 0 3231 3262 3262 3293 3293 3293 3293 3293 3324 3293 3324 3324 3324 3324 3324 3324 3357 3390 3357 3357 3357 3357 3357 3357 3357 3357 3324 3324 3324 3357 3357 3357 3357 3357 3357 3357 3357 3357 3357 3357 3357 3357 3357 3357 3324 3262 3262 3262 3262 3262 3262 3231 3231 3231 3231 3231 3201 3172 3143 3115 3115 3087 3087 3087 3087 3033 3006 3033 3033 3006 3006 3006 2980 2955 2955 2930
    0 0 0 0 0 0 0 0 0 0 0 0 0 0 0 0 0 0 0 0 0 0 0 0 0 0 0 0 0 0 0 0 0 0 0 0 0 0 0 0 0 0 0 0 0 0 0 0 0 0 0 0 0 0 0 0 0 2469 2469 2451 2451 2451 2451 2451 2434 2417 2400 2400 2384 2384 2351 2351 2351 2335 2335 2320 2304 2289 2289 2274 2274 2259 2244 2230 2215 2215 2201 2201 2980 2980 2980 3033 3033 3033 3059 3087 3087 3087 3087 3087 3087 3087 3115 3115 3087 3087 3087 3115 3115 3115 3115 3115 3115 3115 3115 3143 3115 3115 3115 3115 3115 3115 3087 3087 3087 3059 968 970 973 973 973 973 973 973 970 970 970 970 968 965 965 965 968 968 968 970 973 973 973 976 973 976 976 976 976 976 976 978 978 978 981 981 984 984 987 987 990 990 993 995 998 998 1001 1001 1001 1004 1004 1007 1007 1004 1001 1001 998 995 993 993 993 993 993 993 995 995 998 998 998 998 1001 1001 998 998 998 998 998 998 998 998 995 995 995 993 993 993 990 990 990 990 987 987 987 984 984 981 981 981 978 978 978 978 978 976 976 976 973 973 973 976 976 976 976 976 976 976 976 976 976 976 976 976 976 976 973 973 973 973 970 968 965 965 962 962 962 962 962 962 962 962 962 962 962 962 962 962 959 959 959 957 957 957 957 954 954 954 954 954 954 954 952 952 952 952 952 952 952 952 952 952 949 949 949 946 944 941 939 936 936 936 936 939 939 939 941 941 941 941 941 941 944 944 946 946 946 946 949 949 949 949 952 952 952 952 954 954 957 957 957 959 959 959 959 959 959 959 959 959 959 962 962 962 965 965 968 968 970 970 970 973 976 978 981 984 987 990 993 995 995 995 998 998 998 1001 1001 998 998 995 993 990 987 987 984 984 984 987 987 987 987 984 984 981 981 978 978 976 976 973 973 970 970 970 968 965 965 962 962 962 959 959 957 957 957 1028 1025 1028 1028 1025 954 952 946 946 944 944 941 936 933 933 931 928 926 926 923 921 919 919 919 916 914 914 911 911 909 909 907 907 904 902 899 899 897 897 897 895 895 895 892 890 890 888 888 886 883 883 881 881 879 879 877 877 877 877 874 872 872 820 820 820 820 818 816 815 815 815 813 811 809 809 807 807 805 805 807 805 807 805 805 805 805 805 805 807 807 807 807 805 805 805 807 807 809 811 811 811 811 813 813 815 816 818 822 824 826 826 828 830 830 832 834 836 838 840 842 0 0 0 0 0 0 0 0 0 0 0 0 0 0 0 0 0 0 0 0 0 0 0 0 0 0 0 0 0 0 0 0 0 0 0 0 3231 3262 3262 3293 3293 3293 3293 3293 3293 3293 3293 3324 3324 3324 3324 3357 3390 3390 3390 3357 3357 3357 3357 3357 3357 3324 3357 3324 3324 3357 3324 3357 3324 3324 3357 3324 3324 3357 3357 3357 3357 3324 3324 3324 3262 3262 3262 3262 3262 3262 3231 3231 3231 3231 3231 3201 3172 3172 3115 3115 3087 3087 3087 3087 3059 3033 3033 3033 3006 3006 3006 2980 2955 2930 2930
    0 0 0 0 0 0 0 0 0 0 0 0 0 0 0 0 0 0 0 0 0 0 0 0 0 0 0 0 0 0 0 0 0 0 0 0 0 0 0 0 0 0 0 0 0 0 0 0 0 0 0 0 0 0 0 0 0 2487 2469 2451 2451 2451 2434 2434 2417 2400 2400 2384 2384 2367 2351 2351 2351 2335 2335 2320 2304 2289 2289 2274 2274 2259 2259 2230 2215 2201 2201 2201 2980 2980 3006 3033 3033 3059 3059 3087 3087 3087 3087 3087 3087 3115 3115 3115 3115 3115 3115 3115 3115 3115 3115 3115 3115 3115 3115 3115 3115 3115 3115 3115 3115 3115 3087 3087 3059 3059 968 970 970 970 973 973 970 970 968 968 968 965 962 962 962 962 965 965 965 968 968 970 973 973 973 973 973 973 976 976 976 976 978 978 978 981 984 984 987 987 990 990 993 995 995 998 1001 1001 1001 1001 1004 1004 1004 1001 1001 998 998 995 993 990 990 990 990 990 993 993 995 995 995 998 998 998 998 998 998 998 995 995 993 993 993 993 993 993 993 990 990 990 987 987 984 984 984 981 981 978 978 978 978 978 978 978 976 973 973 973 973 973 973 973 976 976 976 976 976 976 976 976 976 976 973 973 973 973 973 973 970 970 968 968 965 962 962 962 962 962 962 962 962 962 962 962 962 962 959 959 959 957 957 957 954 954 954 954 954 954 952 952 952 952 952 952 952 952 952 952 952 952 949 949 946 946 944 941 939 936 936 933 933 933 936 936 936 936 939 939 941 941 941 941 941 944 944 946 944 946 949 949 949 949 949 952 952 952 952 954 954 957 957 957 957 959 959 959 959 959 959 959 959 959 962 962 965 965 968 968 970 970 970 973 973 976 981 984 987 990 993 995 995 995 998 998 1001 1001 1001 1001 998 995 993 990 987 987 987 987 987 987 990 987 987 987 984 984 981 981 978 978 978 976 973 973 973 970 970 968 968 965 962 962 959 959 959 959 1028 1028 1025 1025 1025 1022 1019 1019 1019 946 946 946 944 939 939 936 933 931 928 928 926 923 921 921 919 916 916 914 911 911 909 909 907 907 907 904 902 899 899 897 897 897 895 895 895 892 890 890 890 888 886 883 881 881 879 879 879 879 877 877 877 874 874 872 820 822 822 820 818 818 818 816 815 815 811 811 809 809 807 807 807 807 807 807 807 807 807 807 807 807 807 809 807 807 807 807 807 809 811 811 813 813 813 815 815 816 818 820 824 824 826 826 826 828 830 832 834 836 838 840 840 0 0 0 0 0 0 0 0 0 0 0 0 0 0 0 0 0 0 0 0 0 0 0 0 0 0 0 0 0 0 0 0 0 0 0 0 3262 3262 3293 3293 3293 3293 3293 3293 3293 3293 3293 3324 3324 3324 3357 3390 3390 3390 3390 3390 3390 3390 3390 3357 3324 3390 3324 3357 3324 3324 3357 3357 3324 3324 3324 3324 3324 3324 3357 3324 3357 3324 3324 3324 3293 3293 3262 3262 3262 3262 3231 3231 3231 3231 3231 3201 3172 3172 3115 3087 3087 3059 3059 3059 3033 3033 3033 3033 3006 3006 2980 2980 2980 2955 2930
    0 0 0 0 0 0 0 0 0 0 0 0 0 0 0 0 0 0 0 0 0 0 0 0 0 0 0 0 0 0 0 0 0 0 0 0 0 0 0 0 0 0 0 0 0 0 0 0 0 0 0 0 0 0 0 0 0 2451 2451 2434 2434 2434 2417 2417 2400 2400 2384 2384 2367 2351 2335 2335 2335 2335 2320 2320 2304 2289 2289 2274 2259 2244 2244 2230 2215 2215 2201 2201 2955 2980 3006 3059 3059 3059 3059 3087 3087 3087 3087 3087 3115 3115 3115 3115 3115 3115 3115 3115 3115 3115 3115 3115 3115 3115 3115 3115 3115 3115 3115 3115 3115 3115 3087 3087 3059 3033 968 970 968 968 968 968 968 968 965 962 965 962 959 959 959 959 959 959 959 959 962 965 968 968 970 970 973 970 973 976 976 976 978 978 978 981 981 984 984 987 987 990 990 993 995 998 998 998 1001 1001 1001 1001 1001 1001 1001 998 995 995 993 990 990 990 990 990 990 990 993 993 993 995 995 995 995 995 993 993 993 993 990 990 990 990 990 990 990 990 987 987 984 981 981 981 978 978 978 978 978 978 976 976 976 976 976 973 973 973 973 973 973 973 973 973 976 976 976 976 976 976 976 976 973 973 973 973 973 973 970 970 968 965 965 962 962 962 962 962 962 959 962 962 962 959 959 959 959 959 957 957 957 954 954 954 954 954 954 952 952 952 952 952 952 952 952 952 949 949 949 949 946 946 944 944 941 939 936 936 933 933 933 933 933 933 933 936 936 939 939 939 941 941 941 944 944 946 944 944 946 946 946 949 949 949 952 952 952 952 954 954 957 957 957 957 959 959 959 959 959 959 959 959 962 962 962 965 965 968 968 970 970 973 973 976 978 984 987 990 993 995 995 998 998 1001 1001 1001 1001 1001 998 998 995 993 990 990 990 990 990 990 990 990 990 990 987 984 984 981 981 978 978 976 973 973 973 973 970 968 968 968 965 962 959 957 957 1025 1028 1028 1022 1022 1022 1019 1019 1016 1016 1013 1013 946 944 941 939 939 936 933 931 931 928 928 926 923 921 919 916 916 914 911 911 911 909 909 907 904 904 902 899 899 899 897 897 895 895 892 892 890 890 888 886 886 881 881 881 879 879 879 879 877 877 874 874 872 822 824 826 822 822 820 820 818 818 816 815 813 813 811 809 809 809 809 809 809 809 807 809 807 807 809 807 809 809 809 809 811 809 813 813 815 815 815 815 816 816 818 820 820 824 824 826 826 826 828 830 832 834 836 838 840 840 842 0 0 0 0 0 0 0 0 0 0 0 0 0 0 0 0 0 0 0 0 0 0 0 0 0 0 0 0 0 0 0 0 0 0 0 3262 3262 3293 3293 3293 3293 3293 3293 3293 3293 3293 3324 3324 3324 3324 3357 3357 3390 3390 3357 3390 3390 3390 3390 3390 3390 3390 3357 3357 3357 3357 3357 3357 3324 3324 3293 3293 3324 3324 3324 3324 3324 3324 3324 3324 3293 3293 3293 3293 3293 3262 3262 3262 3231 3231 3201 3172 3143 3115 3087 3087 3059 3059 3059 3033 3033 3033 3006 3006 3006 2980 2980 2955 2930 2905
    0 0 0 0 0 0 0 0 0 0 0 0 0 0 0 0 0 0 0 0 0 0 0 0 0 0 0 0 0 0 0 0 0 0 0 0 0 0 0 0 0 0 0 0 0 0 0 0 0 0 0 0 0 0 0 0 2451 2451 2451 2434 2434 2434 2417 2417 2400 2400 2384 2384 2367 2351 2351 2335 2335 2335 2320 2320 2304 2289 2274 2259 2259 2244 2230 2215 2215 2215 2201 2201 2980 2980 3006 3059 3059 3059 3087 3087 3087 3087 3087 3087 3115 3115 3115 3115 3115 3115 3115 3115 3115 3115 3115 3115 3115 3115 3115 3115 3115 3115 3115 3087 3115 3115 3087 3059 3033 968 968 968 968 968 968 968 965 962 959 962 962 959 957 957 957 957 957 957 957 957 959 959 965 965 968 968 970 970 973 973 976 976 976 978 978 978 981 981 984 987 987 990 990 993 993 995 998 998 998 1001 1001 1001 1001 1001 998 998 995 993 990 990 990 990 990 990 990 990 990 990 990 990 993 993 993 993 993 990 990 990 990 987 987 987 987 987 987 987 984 984 981 981 978 978 978 976 976 976 976 976 976 976 976 976 976 973 973 973 973 973 973 973 973 973 973 973 973 973 973 973 973 973 973 973 973 973 973 970 968 968 965 965 962 962 959 959 959 959 959 959 959 959 959 959 959 959 957 959 957 957 954 954 954 954 952 952 952 952 949 949 949 949 949 949 949 949 949 946 946 946 944 944 944 941 939 936 936 933 933 933 933 933 933 933 933 936 936 936 939 939 941 941 941 944 944 946 944 944 946 946 946 946 949 949 949 949 952 952 952 954 954 957 957 957 957 959 959 959 959 959 959 959 962 962 962 965 965 968 968 970 970 970 973 976 978 984 990 993 993 995 995 998 998 1001 1001 1001 1001 1001 1001 1001 998 995 993 993 993 993 993 993 993 990 993 990 987 984 984 984 981 981 978 978 976 973 973 973 973 970 968 968 968 965 962 962 1022 1025 1025 1022 1019 1019 1019 1016 1016 1016 1013 1013 1013 1013 946 941 941 939 939 933 933 931 931 928 928 926 923 921 919 919 914 914 911 911 909 909 907 907 904 904 904 902 902 899 897 895 895 895 892 892 890 890 888 886 883 883 881 881 879 879 879 877 877 874 874 874 872 826 828 824 824 824 822 820 820 818 818 816 815 815 811 811 813 813 811 811 809 809 809 809 809 809 809 811 811 811 811 813 813 815 815 818 816 816 816 818 818 818 820 822 824 826 826 828 828 830 830 834 836 838 838 840 842 842 0 0 0 0 0 0 0 0 0 0 0 0 0 0 0 0 0 0 0 0 0 0 0 0 0 0 0 0 0 0 0 0 0 0 0 0 3293 3324 3293 3293 3324 3293 3293 3293 3293 3293 3324 3324 3324 3324 3357 3357 3390 3390 3357 3390 3390 3390 3357 3390 3357 3390 3357 3357 3357 3357 3357 3293 3293 3293 3293 3293 3324 3324 3324 3324 3324 3324 3324 3293 3293 3293 3293 3293 3293 3262 3262 3231 3231 3231 3201 3172 3172 3115 3087 3059 3059 3059 3033 3033 3033 3033 3033 3006 3006 2980 2980 2955 2930 2905
    0 0 0 0 0 0 0 0 0 0 0 0 0 0 0 0 0 0 0 0 0 0 0 0 0 0 0 0 0 0 0 0 0 0 0 0 0 0 0 0 0 0 0 0 0 0 0 0 0 0 0 2384 0 0 0 0 2434 2434 2434 2434 2434 2417 2417 2400 2400 2384 2384 2367 2351 2351 2335 2335 2335 2335 2320 2304 2289 2274 2274 2259 2244 2230 2230 2215 2215 2201 2201 2201 2201 2201 3059 3059 3059 3087 3087 3087 3087 3087 3087 3087 3087 3087 3087 3087 3087 3087 3087 3115 3115 3115 3115 3115 3087 3087 3115 3087 3115 3115 3115 3115 3115 3115 3087 3059 3033 970 968 968 968 965 965 959 959 954 957 957 957 957 954 954 954 954 954 954 954 954 954 957 959 962 965 965 968 968 968 970 973 973 976 976 976 978 978 981 981 987 987 990 990 993 993 995 998 998 998 998 1001 1001 1001 998 998 998 995 993 990 987 987 987 987 987 987 987 987 987 990 990 990 990 990 990 990 990 987 987 987 987 987 984 984 984 984 981 981 978 978 978 978 976 976 976 976 976 976 976 976 976 976 976 976 973 973 970 970 970 970 973 973 973 973 973 973 973 973 973 973 973 973 973 970 970 970 968 965 965 962 962 962 959 957 957 959 959 957 957 957 957 959 957 957 957 957 957 954 954 954 954 952 952 952 949 949 949 949 949 946 946 946 946 946 946 946 944 944 944 941 941 939 939 936 933 933 933 933 931 933 933 933 933 933 936 936 936 939 939 941 941 941 944 944 944 941 944 946 946 946 946 946 949 949 949 952 952 952 954 954 954 954 957 957 957 957 957 957 959 959 959 959 962 962 965 965 965 968 968 970 970 973 976 978 984 990 993 993 995 995 998 998 1001 1004 1004 1004 1004 1004 1001 1001 998 993 993 993 993 993 993 993 993 993 993 990 987 987 984 981 981 981 978 976 976 973 973 973 970 970 970 970 968 968 1022 1022 1022 1022 1022 1016 1016 1016 1016 1016 1013 1013 1013 1010 1013 1013 1016 936 939 939 936 933 933 931 931 931 928 926 926 919 919 916 916 914 911 909 909 909 907 907 904 904 902 902 899 899 897 897 895 895 892 892 890 888 888 886 883 881 881 881 881 879 879 877 877 877 872 872 826 828 824 826 826 824 822 822 822 820 820 818 818 818 816 815 815 813 813 813 811 811 811 811 811 813 813 813 813 813 815 815 816 816 816 816 816 816 818 818 820 820 822 826 826 826 828 828 830 830 834 836 838 840 840 842 842 842 0 0 0 0 0 0 0 0 0 0 0 0 0 0 0 0 0 0 0 0 0 0 0 0 0 0 0 0 0 0 0 0 0 0 0 3293 3293 3293 3293 3324 3293 3293 3293 3324 3293 3324 3324 3324 3324 3324 3324 3357 3357 3357 3357 3357 3357 3357 3357 3357 3390 3357 3357 3357 3357 3357 3293 3293 3293 3293 3293 3324 3324 3324 3324 3324 3324 3324 3293 3293 3293 3293 3293 3262 3262 3231 3231 3231 3231 3201 3172 3172 3143 3115 3115 3087 3059 3059 3033 3033 3033 3033 3006 3006 2980 2980 2930 2930 2905
    0 0 0 0 0 0 0 0 0 0 0 0 0 0 0 0 0 0 0 0 0 0 0 0 0 0 0 0 0 0 0 0 0 0 0 0 0 0 0 0 0 0 0 0 0 0 0 0 0 2367 2367 2384 2367 2384 2367 2384 2434 2434 2434 2434 2417 2417 2417 2400 2400 2384 2384 2384 2367 2351 2335 2335 2335 2335 2320 2304 2289 2274 2259 2259 2230 2230 2230 2215 2215 2201 2201 2201 2201 2201 3059 3059 3059 3059 3087 3087 3087 3087 3115 3087 3087 3087 3087 3087 3087 3087 3087 3087 3087 3115 3087 3087 3087 3087 3087 3087 3087 3087 3115 3087 3115 3115 3087 970 970 970 968 968 968 965 954 952 952 952 952 954 954 957 954 952 952 954 952 952 952 952 954 954 957 959 959 962 965 965 965 968 970 970 973 976 976 978 978 978 981 984 987 987 990 990 993 995 998 998 998 998 998 998 998 998 998 998 995 993 990 987 987 984 987 987 987 987 987 987 987 987 987 987 987 987 990 987 987 987 984 984 981 981 981 981 978 978 978 978 976 976 976 976 976 973 976 976 976 976 976 976 976 976 976 973 973 970 970 970 970 970 970 970 973 973 973 973 973 973 973 973 973 970 970 970 968 965 962 962 962 959 959 957 957 957 957 957 954 954 957 954 957 954 954 954 954 954 954 954 952 952 952 949 946 949 946 946 946 946 946 946 944 946 944 946 944 944 944 941 939 939 936 936 933 931 931 931 931 931 931 931 933 933 933 933 936 936 939 939 941 941 941 941 944 944 941 941 944 944 944 944 946 946 949 949 949 952 952 952 954 954 954 954 954 957 957 957 957 957 957 959 959 959 962 962 962 965 965 968 968 970 973 973 976 981 987 990 993 995 995 998 1001 1001 1004 1004 1004 1004 1004 1004 1001 998 995 993 993 993 995 993 995 993 993 993 990 990 990 987 984 984 981 981 978 976 976 976 973 973 970 970 970 970 970 1022 1022 1022 1022 1022 1016 1016 1016 1016 1016 1013 1013 1013 1010 1010 1013 1016 1016 936 939 936 936 936 933 931 933 931 931 928 926 921 919 919 916 916 911 911 909 909 909 907 904 904 904 902 899 897 897 897 895 895 895 892 890 890 886 886 883 881 881 881 879 879 879 877 877 874 872 872 828 826 828 828 826 826 826 824 822 822 820 820 820 818 816 816 815 815 815 813 813 813 813 813 813 815 815 813 813 815 816 816 816 816 818 818 818 818 820 820 822 824 826 826 826 828 828 830 832 834 836 838 840 840 842 842 842 0 0 0 0 0 0 0 0 0 0 0 0 0 0 0 0 0 0 0 0 0 0 0 0 0 0 0 0 0 0 0 0 0 0 0 0 3324 3324 3324 3324 3324 3324 3324 3324 3324 3324 3324 3324 3357 3324 3324 3357 3357 3357 3357 3357 3357 3357 3357 3357 3390 3324 3324 3293 3324 3324 3293 3293 3293 3293 3293 3324 3324 3324 3324 3324 3324 3324 3293 3293 3293 3293 3293 3293 3262 3231 3231 3201 3201 3172 3172 3172 3143 3143 3115 3087 3087 3059 3059 3033 3033 3033 3033 3006 3006 2980 2955 2930 2905
    0 0 0 0 0 0 0 0 0 0 0 0 0 0 0 0 0 0 0 0 0 0 0 0 0 0 0 0 0 0 0 0 0 0 0 0 0 0 0 0 0 0 0 0 0 0 0 0 0 0 0 2367 2335 2384 2367 2400 2434 2434 2434 2434 2417 2417 2417 2400 2400 2384 2384 2384 2367 2351 2335 2335 2320 2320 2304 2304 2274 2274 2259 2244 2230 2215 2215 2201 2201 2201 2201 2201 2201 2201 3059 3059 3059 3059 3087 3087 3087 3087 3115 3087 3087 3087 3087 3087 3087 3087 3087 3087 3115 3115 3087 3087 3087 3087 3087 3087 3087 3087 3115 3115 3143 3143 3115 970 970 970 968 968 965 949 946 946 949 946 946 949 949 954 952 952 949 952 949 949 952 952 952 954 957 957 962 962 965 965 965 968 968 970 973 976 976 978 978 981 981 987 987 987 990 990 993 995 995 995 998 998 998 998 998 998 998 998 995 993 987 987 984 984 984 984 984 984 984 984 987 987 984 984 987 987 987 987 984 984 984 984 981 981 978 978 978 978 976 976 973 973 973 973 973 973 973 973 973 973 973 976 976 973 976 973 970 970 970 970 970 970 970 970 970 970 973 970 970 970 970 970 970 970 968 968 965 962 962 959 959 959 957 957 954 954 954 954 954 954 954 954 954 954 954 954 954 954 952 952 949 949 946 946 944 946 946 944 944 944 944 944 944 944 944 944 941 941 941 939 936 936 933 933 931 931 931 931 931 931 931 931 933 933 933 933 936 936 939 939 939 941 941 941 941 944 941 941 944 944 944 944 946 946 949 949 949 949 952 952 954 954 954 954 954 954 954 954 954 957 957 957 959 959 959 962 962 962 965 965 968 970 970 973 973 978 984 987 993 995 995 998 1001 1001 1004 1004 1004 1007 1004 1004 1004 1001 998 995 995 995 995 995 995 995 995 993 993 993 990 987 984 984 981 981 978 978 976 976 973 973 970 970 970 973 973 1022 1022 1022 1022 1019 1016 1016 1016 1013 1013 1013 1010 1013 1010 1010 1013 1016 939 939 936 939 936 936 0 933 933 933 936 933 933 928 921 921 919 919 916 914 911 911 909 909 907 907 904 904 902 899 899 897 897 895 895 892 892 890 888 886 883 883 881 881 881 879 879 877 877 874 872 872 828 828 830 830 828 828 828 826 824 824 822 822 822 820 818 818 818 816 818 815 815 815 815 815 815 816 815 815 815 816 816 818 818 818 820 820 820 820 822 822 824 826 826 828 828 828 830 832 834 836 838 840 842 842 842 842 844 0 0 0 0 0 0 0 0 0 0 0 0 0 0 0 0 0 0 0 0 0 0 0 0 0 0 0 0 0 0 0 0 0 0 0 0 3324 3324 3324 3293 3293 3293 3293 3293 3324 3324 3324 3357 3357 3357 3357 3357 3357 3357 3357 3357 3324 3324 3357 3357 3390 3324 3293 3262 3293 3324 3293 3262 3293 3293 3293 3293 3293 3324 3293 3293 3293 3293 3293 3293 3293 3293 3293 3293 3262 3262 3231 3231 3201 3201 3172 3172 3143 3115 3115 3115 3087 3087 3059 3033 3033 3033 3033 3006 3006 2980 2955 2930 2905
    0 0 0 0 0 0 0 0 0 0 0 0 0 0 0 0 0 0 0 0 0 0 0 0 0 0 0 0 0 0 0 0 0 0 0 0 0 0 0 0 0 0 0 0 0 0 0 0 0 0 0 0 2335 2384 2367 2384 2434 2434 2434 2434 2417 2417 2400 2400 2384 2384 2384 2367 2367 2351 2335 2320 2320 2320 2304 2289 2274 2259 2244 2230 2230 2215 2215 2215 2201 2201 2201 2201 2201 3087 3087 3059 3059 3087 3087 3087 3087 3087 3087 3087 3087 3087 3087 3087 3087 3087 3087 3087 3087 3087 3087 3087 3087 3087 3087 3087 3087 3087 3115 3115 3115 3143 3087 970 970 970 968 941 941 941 941 944 944 944 944 946 946 949 949 949 946 949 949 949 949 952 952 954 954 957 959 962 965 965 965 965 968 968 970 973 976 976 978 978 981 984 987 987 990 990 993 993 995 995 998 998 998 998 998 998 998 995 993 993 987 984 984 981 981 984 981 981 981 984 984 984 981 981 984 984 984 984 981 981 981 981 978 978 978 978 976 976 973 973 973 973 973 970 970 970 970 970 973 973 973 973 973 973 973 970 970 970 970 968 968 970 968 968 968 970 970 970 970 970 970 970 968 968 965 965 965 962 959 957 957 957 954 954 954 954 954 954 952 952 952 952 952 952 952 952 952 952 949 949 946 946 946 944 944 944 944 944 944 944 944 944 941 941 941 941 939 939 936 936 933 933 933 931 931 931 931 931 931 931 931 931 933 933 933 933 933 936 936 936 939 939 941 941 941 944 941 941 944 944 944 944 946 946 949 949 949 949 952 952 952 952 952 952 952 954 954 954 954 954 957 957 957 959 959 959 962 962 962 965 968 968 970 973 973 976 981 987 993 995 998 1001 1001 1004 1004 1004 1004 1004 1004 1004 1004 1004 1001 998 998 998 998 995 995 995 995 993 993 993 993 990 987 984 984 981 981 978 978 978 976 973 970 973 973 973 1022 1022 1022 1019 1019 1019 1013 1016 1013 1013 1013 1010 1010 1010 1010 1010 1013 1016 939 939 0 0 0 0 0 0 0 0 939 0 933 933 926 921 919 921 919 916 914 911 911 909 909 907 907 907 904 902 899 899 897 897 895 895 892 890 890 888 886 886 883 881 881 879 879 877 877 874 872 872 870 866 830 832 830 830 828 826 826 824 822 822 822 822 820 820 820 818 820 816 816 818 818 818 818 818 818 816 816 818 818 818 818 820 820 820 822 822 822 822 824 826 828 828 828 830 830 834 834 836 838 840 842 842 842 842 842 0 0 0 0 0 0 0 0 0 0 0 0 0 0 0 0 0 0 0 0 0 0 0 0 0 0 0 0 0 0 0 0 0 0 0 0 3357 3324 3324 3324 3324 3324 3293 3324 3324 3324 3324 3357 3357 3357 3357 3357 3357 3357 3357 3357 3324 3324 3357 3357 3390 3324 3293 3293 3293 3293 3293 3262 3262 3262 3262 3293 3293 3293 3293 3293 3293 3324 3293 3293 3293 3293 3293 3293 3262 3262 3231 3231 3201 3172 3172 3143 3143 3115 3115 3087 3087 3087 3087 3033 3033 3033 3033 3006 3006 2980 2955 2930 2905
    0 0 0 0 0 0 0 0 0 0 0 0 0 0 0 0 0 0 0 0 0 0 0 0 0 0 0 0 0 0 0 0 0 0 0 0 0 0 0 0 0 0 0 0 0 0 0 0 0 0 0 0 2384 2384 2400 2417 2434 2434 2434 2434 2417 2400 2400 2400 2384 2384 2384 2367 2351 2351 2335 2320 2320 2320 2274 2274 2259 2244 2230 2230 2215 2215 2215 2215 2215 2201 2201 2201 2201 3087 3087 3059 3059 3059 3087 3087 3087 3087 3087 3087 3087 3087 3087 3087 3087 3087 3087 3087 3087 3087 3087 3087 3087 3087 3087 3087 3087 3087 3087 3115 3143 3143 939 939 941 941 941 939 939 939 939 941 941 941 941 941 944 946 944 944 946 946 946 946 949 949 949 952 954 954 957 959 962 965 962 965 965 968 968 970 973 976 978 978 981 984 987 987 987 990 990 993 995 995 995 998 998 998 998 998 995 995 993 990 987 984 981 981 981 981 981 981 981 981 981 981 981 981 981 981 984 981 981 981 981 978 978 978 976 976 973 973 970 973 970 970 970 970 970 970 970 970 970 970 970 970 970 970 973 970 970 968 968 968 968 968 968 968 968 968 968 968 968 970 968 968 968 965 965 962 962 959 957 954 954 954 954 954 952 952 952 952 952 952 952 952 952 952 952 952 952 949 949 946 946 946 944 944 944 944 944 944 944 941 941 941 941 941 941 939 939 936 936 933 933 931 931 928 928 928 928 928 928 928 931 931 931 933 933 933 933 936 936 936 936 939 939 941 941 941 939 941 941 944 944 944 946 946 949 949 949 949 952 952 952 952 952 952 952 952 952 952 954 954 954 957 957 957 959 959 959 962 962 965 965 968 970 970 973 976 984 990 993 995 998 998 1001 1001 1004 1004 1004 1004 1007 1007 1007 1007 1007 1010 0 0 0 0 995 995 995 995 993 993 993 990 987 984 984 981 981 981 981 978 978 976 973 973 973 976 1022 1022 1022 1019 1019 1016 1013 1013 1013 1010 1010 1010 1010 1010 1010 1010 1013 1016 1016 0 0 0 0 0 0 0 0 0 0 0 0 0 0 921 919 921 919 916 914 911 911 909 909 909 909 907 907 907 904 899 897 897 895 895 892 892 890 890 888 886 883 883 881 881 879 879 877 874 874 872 870 868 866 832 830 830 830 828 826 826 824 824 824 824 822 822 822 820 822 820 818 820 820 820 820 820 818 818 818 820 818 820 820 820 822 822 824 824 824 824 826 826 828 830 830 832 832 834 836 838 840 842 842 842 844 844 844 0 0 0 0 0 0 0 0 0 0 0 0 0 0 0 0 0 0 0 0 0 0 0 0 0 0 0 0 0 0 0 0 0 0 0 0 3357 3324 3324 3324 3324 3293 3293 3293 3324 3324 3324 3357 3357 3357 3357 3357 3357 3357 3390 3357 3324 3324 3324 3357 3390 3357 3324 3262 3293 3324 3293 3262 3262 3262 3262 3293 3293 3293 3293 3262 3293 3293 3324 3324 3324 3293 3293 3293 3262 3262 3231 3231 3201 3172 3172 3143 3143 3115 3115 3115 3115 3087 3033 3033 3033 3033 3006 3006 2980 2980 2930 2905 2905
    0 0 0 0 0 0 0 0 0 0 0 0 0 0 0 0 0 0 0 0 0 0 0 0 0 0 0 0 0 0 0 0 0 0 0 0 0 0 0 0 0 0 0 0 0 0 0 0 0 0 0 0 0 2384 2400 2417 2434 2434 2434 2434 2417 2400 2400 2400 2384 2384 2367 2367 2351 2335 2335 2320 2304 2304 2274 2259 2259 2244 2230 2230 2215 2215 2215 2215 2215 2215 2201 2201 3059 3059 3059 3059 3059 3059 3059 3059 3059 3087 3087 3087 3087 3087 3059 3087 3087 3059 3059 3087 3087 3087 3087 3087 3087 3087 3087 3087 3059 3059 3087 3087 933 933 936 936 939 939 936 936 936 936 936 939 939 939 939 939 941 941 939 941 944 944 944 946 946 946 946 949 949 952 954 957 959 962 962 962 965 965 968 970 973 976 976 978 981 984 987 987 987 990 990 993 993 995 995 995 998 998 998 995 995 993 993 990 987 984 981 981 978 978 978 978 978 978 981 978 978 978 981 981 981 978 978 978 978 978 976 976 973 973 973 970 970 970 970 970 970 970 970 970 970 970 970 970 970 970 970 970 970 968 968 968 968 968 968 968 965 965 965 965 965 968 968 968 965 965 965 962 962 959 959 957 954 954 954 954 952 952 952 952 952 952 952 952 952 952 952 949 949 949 949 949 946 946 944 944 944 941 941 941 941 941 941 941 941 941 941 941 939 939 936 933 933 933 931 931 928 928 926 926 926 926 926 928 928 931 931 933 933 933 933 936 936 936 936 939 939 941 941 941 939 941 941 941 944 944 946 946 949 949 949 949 949 952 952 952 952 952 952 952 952 952 952 954 954 957 957 957 959 959 959 959 962 962 965 968 968 970 973 976 984 990 993 995 998 998 1001 1004 1004 1004 1004 1004 1007 1007 1010 0 0 0 0 0 0 0 0 0 998 995 995 995 993 993 990 987 984 984 981 981 981 981 978 976 976 976 976 978 1019 1019 1019 1016 1016 1013 1010 1013 1010 1010 1010 1010 1010 1010 1010 1010 1013 1013 0 0 0 0 0 0 0 0 0 0 0 0 0 0 0 0 0 0 0 919 916 914 911 911 911 909 909 909 907 907 907 902 899 897 897 895 895 892 890 890 888 888 886 886 883 881 879 879 879 877 874 874 872 870 868 868 855 832 832 830 828 828 826 824 824 824 822 822 822 822 824 822 822 820 822 822 822 822 820 820 820 820 820 822 820 822 822 822 824 824 826 826 826 828 830 830 830 832 832 834 836 838 840 840 842 842 844 844 0 0 0 0 0 0 0 0 0 0 0 0 0 0 0 0 0 0 0 0 0 0 0 0 0 0 0 0 0 0 0 0 0 0 0 0 0 0 3324 3324 3324 3293 3324 3293 3293 3324 3324 3324 3357 3357 3357 3357 3357 3357 3357 3357 3324 3324 3324 3324 3324 3324 3293 3293 3262 3293 3262 3293 3262 3262 3262 3262 3293 3293 3324 3293 3293 3293 3293 3324 3324 3324 3324 3293 3293 3262 3231 3231 3231 3201 3172 3143 3143 3115 3115 3115 3115 3115 3087 3033 3033 3033 3033 3006 3006 2980 2980 2930 2905 2905
    0 0 0 0 0 0 0 0 0 0 0 0 0 0 0 0 0 0 0 0 0 0 0 0 0 0 0 0 0 0 0 0 0 0 0 0 0 0 0 0 0 0 0 0 0 0 0 0 0 0 0 0 0 2400 2434 2434 2451 2451 2434 2434 2417 2417 2400 2400 2384 2384 2367 2351 2351 2335 2335 2320 2304 2289 2274 2259 2244 2244 2230 2215 2215 2215 2215 2201 2201 2215 2215 3059 3059 3059 3059 3059 3059 3059 3059 3059 3087 3087 3087 3087 3087 3087 3059 3087 3087 3059 3059 3087 3087 3087 3087 3087 3087 3087 3059 3059 3059 3059 3087 926 931 931 933 933 936 936 936 936 936 936 936 936 936 936 936 939 939 939 939 939 939 941 944 944 944 946 946 946 946 949 952 954 957 959 959 962 965 965 968 968 970 973 976 978 981 984 987 987 987 990 990 993 993 993 995 995 998 998 998 995 995 993 993 990 984 984 981 978 978 978 978 978 978 978 978 978 978 978 978 978 978 978 978 978 978 976 976 973 973 973 970 970 968 970 968 968 968 968 968 968 968 968 968 968 968 968 968 968 968 968 965 965 965 965 965 965 965 965 965 965 965 965 965 965 965 962 962 962 959 959 957 954 954 952 952 952 952 952 952 952 952 949 949 949 952 949 949 949 949 949 949 946 944 944 944 944 941 941 941 941 941 941 941 941 941 941 941 939 939 939 936 933 933 931 931 928 928 926 926 926 926 926 926 928 928 931 931 931 931 933 933 933 936 933 936 936 939 939 939 941 939 941 941 944 944 944 946 946 949 949 949 949 949 952 952 952 952 952 952 952 952 952 952 952 954 954 954 957 959 959 959 959 962 962 965 968 968 970 973 976 981 990 993 995 998 1001 1001 1004 1004 1004 1007 1007 1007 1007 0 0 0 0 0 0 0 0 0 0 0 0 0 995 995 993 993 987 984 984 984 981 981 981 978 978 978 978 978 981 1016 1016 1016 1013 1013 1013 1010 1010 1010 1007 1007 1007 1010 1010 1010 1010 1010 0 0 0 0 0 0 0 0 0 0 0 0 0 0 0 0 0 0 0 0 0 919 916 914 911 911 909 909 909 909 909 909 904 899 897 895 895 892 892 890 890 890 888 888 888 886 883 881 879 879 877 877 874 874 872 870 870 863 838 832 832 830 830 828 826 826 826 824 824 826 824 826 824 824 822 824 824 822 822 822 820 822 822 822 824 824 824 824 826 826 826 828 828 828 830 830 832 832 834 834 836 836 838 840 840 842 842 844 846 0 0 0 0 0 0 0 0 0 0 0 0 0 0 0 0 0 0 0 0 0 0 0 0 0 0 0 0 0 0 0 0 0 0 0 0 0 0 3324 3324 3324 3293 3293 3293 3293 3293 3324 3324 3324 3357 3357 3357 3357 3357 3357 3357 3324 3324 3324 3324 3324 3324 3262 3262 3262 3262 3262 3262 3262 3262 3293 3293 3293 3293 3293 3293 3293 3293 3293 3293 3293 3293 3293 3293 3293 3262 3231 3231 3231 3201 3172 3172 3143 3143 3115 3115 3115 3115 3087 3033 3033 3033 3033 3006 2980 2980 2980 2930 2905 2881
    0 0 0 0 0 0 0 0 0 0 0 0 0 0 0 0 0 0 0 0 0 0 0 0 0 0 0 0 0 0 0 0 0 0 0 0 0 0 0 0 0 0 0 0 0 0 0 0 0 0 0 0 0 0 2434 2434 2451 2434 2434 2434 2417 2400 2400 2384 2384 2384 2367 2351 2335 2335 2320 2304 2289 2289 2274 2259 2244 2244 2230 2215 2215 2215 2215 2215 2201 2215 2215 0 3059 3059 3087 3059 3059 3059 3059 3059 3087 3087 3087 3059 3087 3059 3059 3059 3059 3059 3059 3059 3087 3087 3087 3087 3087 3087 3087 3059 3059 3059 928 928 931 931 933 933 936 936 933 933 933 933 933 933 933 933 936 936 936 939 936 939 939 941 941 941 944 944 944 946 946 946 949 952 954 957 959 962 962 965 965 968 970 973 976 978 981 984 987 987 987 990 990 990 993 993 993 995 995 998 995 995 993 993 990 987 984 984 981 978 978 978 978 978 976 978 978 978 978 978 978 978 978 976 976 976 976 976 973 973 970 970 970 968 968 968 968 968 968 968 968 968 968 968 968 968 968 968 968 968 968 965 965 965 965 965 965 965 965 965 965 965 965 965 965 965 962 962 962 959 957 957 954 954 952 952 952 952 949 949 949 949 949 949 949 949 949 949 949 949 949 946 946 946 944 944 941 941 941 941 941 941 941 939 939 939 939 939 939 936 936 936 933 933 931 931 928 928 926 926 923 923 923 926 926 928 928 931 931 931 931 933 933 933 936 933 936 936 939 939 939 939 939 939 941 941 944 944 946 946 949 949 949 949 949 949 949 949 949 949 949 952 952 952 952 952 952 954 954 954 957 957 959 959 959 962 962 968 968 970 973 976 981 987 993 995 998 1001 1001 1004 1004 1004 1007 1007 1007 0 0 0 0 0 0 0 0 0 0 0 0 0 0 0 0 995 995 993 987 984 984 984 984 981 978 978 978 978 978 981 978 1010 1010 1010 1010 1010 1007 1010 1007 1007 1007 1007 1007 1010 1013 1013 1013 1013 0 0 0 0 0 0 0 0 0 0 0 0 0 0 0 0 0 0 0 0 0 0 916 914 914 911 909 909 909 909 909 909 904 899 895 895 892 892 892 892 890 890 890 888 886 886 883 881 879 879 877 877 874 872 870 872 863 851 840 834 836 832 832 830 830 828 828 826 828 828 828 828 828 824 826 826 824 824 822 822 824 824 824 824 824 826 826 826 828 828 830 830 830 830 832 834 832 834 834 836 836 838 838 840 842 842 844 846 0 0 0 0 0 0 0 0 0 0 0 0 0 0 0 0 0 0 0 0 0 0 0 0 0 0 0 0 0 0 0 0 0 0 0 0 0 0 0 3293 3293 3293 3293 3293 3293 3293 3293 3293 3324 3357 3357 3357 3357 3324 3324 3324 3324 3324 3324 3293 3293 3293 3262 3262 3262 3262 3262 3262 3262 3262 3262 3262 3262 3262 3293 3293 3293 3293 3262 3293 3293 3324 3293 3293 3262 3262 3231 3201 3201 3172 3143 3143 3143 3115 3115 3115 3115 3115 3115 3033 3033 3033 3033 3006 2980 2980 2955 2905 2857 2834
    0 0 0 0 0 0 0 0 0 0 0 0 0 0 0 0 0 0 0 0 0 0 0 0 0 0 0 0 0 0 0 0 0 0 0 0 0 0 0 0 0 0 0 0 0 0 0 0 0 0 0 0 0 0 2434 2434 2434 2434 2434 2417 2417 2400 2400 2384 2384 2367 2351 2351 2335 2335 2320 2304 2289 2274 2259 2259 2244 2230 2230 2215 2215 2215 2215 2215 2215 2215 2215 2274 3087 3087 3087 3059 3059 3059 3059 3059 3059 3059 3059 3059 3059 3059 3059 3059 3059 3059 3059 3059 3087 3087 3087 3059 3059 3059 3059 3059 3033 926 926 928 928 931 933 933 933 933 931 933 931 928 928 931 931 931 933 933 933 936 933 936 936 939 939 939 941 941 944 944 944 944 946 949 952 954 957 962 962 965 965 968 968 970 973 978 981 984 984 987 987 987 987 990 990 993 993 995 995 995 995 993 993 990 990 987 987 984 981 978 978 976 976 976 976 976 976 976 976 976 976 976 976 976 976 976 973 973 970 970 970 970 968 968 968 968 968 968 968 968 968 968 968 968 968 965 965 965 968 968 968 965 965 965 965 965 965 965 962 962 965 962 962 962 962 962 962 959 959 957 957 954 954 952 952 952 952 949 949 949 949 949 949 949 949 949 949 949 946 946 946 946 944 944 941 941 941 941 939 939 939 939 939 939 939 936 936 936 936 933 933 933 933 931 931 928 928 928 926 923 923 923 923 926 926 928 928 931 931 931 931 931 933 933 933 933 933 936 936 939 939 939 939 939 941 941 944 944 946 946 949 949 949 949 949 949 949 949 949 949 949 949 949 952 952 952 952 954 954 954 957 957 957 959 959 962 962 968 968 970 973 976 981 987 993 995 1001 1001 1001 1004 1004 1007 1007 1007 0 0 0 0 0 0 0 0 0 0 0 0 0 0 0 0 0 0 0 995 993 0 987 984 984 981 981 978 981 981 981 984 984 1007 1007 1007 1010 1007 1007 1007 1004 1004 1004 1004 1007 1010 1013 1010 1010 1013 0 0 0 0 0 0 0 0 0 0 0 0 0 0 0 0 0 0 0 0 0 0 0 0 0 0 909 909 909 909 0 0 0 0 895 895 895 895 895 892 892 890 890 890 888 888 886 883 881 879 879 877 877 874 872 870 866 866 861 842 844 838 834 832 832 832 830 830 832 830 830 830 828 826 828 826 826 826 824 824 826 826 826 826 826 826 828 828 828 828 830 830 830 832 832 834 834 834 834 836 836 838 840 840 842 844 844 846 0 0 0 0 0 0 0 0 0 0 0 0 0 0 0 0 0 0 0 0 0 0 0 0 0 0 0 0 0 0 0 0 0 0 0 0 0 0 0 3293 3293 3293 3293 3293 3293 3293 3293 3293 3293 3324 3324 3324 3324 3324 3324 3324 3324 3324 3324 3324 3324 3324 3262 3262 3262 3262 3262 3262 3262 3262 3293 3262 3262 3262 3293 3262 3293 3293 3262 3293 3293 3324 3324 3293 3293 3262 3262 3201 3201 3172 3143 3143 3115 3115 3115 3115 3115 3087 3087 3033 3033 3033 3006 3006 2980 2955 2955 2857 2857 2834
    0 0 0 0 0 0 0 0 0 0 0 0 0 0 0 0 0 0 0 0 0 0 0 0 0 0 0 0 0 0 0 0 0 0 0 0 0 0 0 0 0 0 0 0 0 0 0 0 0 0 0 0 0 0 0 2451 2451 2451 2434 2417 2417 2400 2384 2384 2367 2351 2351 2335 2320 2320 2304 2304 2289 2274 2259 2244 2244 2230 2230 2215 2215 2230 2215 2230 2215 2259 2274 2274 2980 3033 3033 3059 3059 3059 3059 3059 3059 3059 3059 3059 3059 3059 3059 3059 3059 3059 3059 3059 3087 3087 3087 3087 3087 3087 3087 3059 3033 926 926 928 928 928 928 928 928 928 926 926 926 926 926 928 928 928 931 931 931 933 931 933 933 936 936 936 939 941 941 944 944 944 946 946 949 952 957 959 962 962 965 965 968 968 970 976 981 984 984 987 987 987 987 987 990 990 993 993 995 995 993 993 990 990 990 990 987 984 981 978 978 976 976 976 976 976 976 976 976 976 976 976 976 976 976 976 973 970 970 968 968 968 968 965 965 965 965 965 965 965 965 965 965 965 965 965 965 965 965 965 965 962 962 962 962 962 962 962 962 962 962 962 962 962 962 962 959 959 957 957 954 954 952 949 949 949 949 946 946 946 949 949 946 946 946 946 946 946 944 944 944 944 944 944 941 941 941 941 939 939 939 939 939 936 936 936 936 936 933 933 933 931 931 931 928 928 926 926 926 923 923 923 923 926 926 928 928 928 931 931 931 931 933 933 933 933 933 936 936 939 939 939 939 939 941 941 944 944 944 946 949 949 949 949 949 949 949 949 949 949 949 949 949 949 949 952 952 952 952 952 954 954 957 957 959 959 962 965 968 970 973 976 978 987 993 995 998 1001 1001 1007 1007 1007 1007 1007 0 0 0 0 0 0 0 0 0 0 0 0 0 0 0 0 0 0 0 0 0 0 0 984 984 981 981 981 981 984 984 987 987 1004 1004 1007 1007 1007 1004 1004 1004 1004 1004 1004 1004 1013 1013 1013 1013 1013 1013 1013 0 0 0 0 0 0 0 0 0 0 0 0 0 0 0 0 0 0 0 0 0 0 0 0 0 0 0 0 0 0 0 0 0 895 892 895 895 895 892 890 890 890 888 888 886 883 881 881 879 877 877 874 872 870 868 866 861 859 853 849 842 838 836 836 834 834 834 834 834 832 830 828 828 828 828 828 828 826 826 828 828 828 828 828 828 830 830 830 832 832 832 832 834 834 834 834 834 836 836 838 838 840 842 842 844 846 0 0 0 0 0 0 0 0 0 0 0 0 0 0 0 0 0 0 0 0 0 0 0 0 0 0 0 0 0 0 0 0 0 0 0 0 0 0 0 0 3293 3262 3293 3293 3293 3293 3293 3293 3293 3357 3324 3324 3324 3324 3324 3324 3293 3324 3293 3293 3293 3293 3262 3262 3262 3262 3262 3262 3262 3262 3293 3262 3262 3293 3293 3293 3293 3293 3262 3293 3293 3293 3293 3293 3262 3262 3262 3231 3201 3172 3143 3143 3115 3087 3087 3087 3087 3087 3087 3033 3033 3006 3006 2980 2930 2905 2905 2857 2857 2834
    0 0 0 0 0 0 0 0 0 0 0 0 0 0 0 0 0 0 0 0 0 0 0 0 0 0 0 0 0 0 0 0 0 0 0 0 0 0 0 0 0 0 0 0 0 0 0 0 0 0 0 0 0 0 0 2451 2451 2451 2434 2417 2400 2384 2367 2367 2351 2351 2335 2335 2320 2320 2304 2289 2274 2274 2259 2244 2244 2230 2230 2215 2215 2230 2230 2230 2230 2274 2274 2274 2980 2980 2980 3059 3059 3059 3059 3059 3059 3059 3059 3059 3059 3059 3059 3059 3059 3059 3059 3059 3087 3087 3087 3087 3087 3059 3087 3059 923 923 923 926 926 923 919 921 921 921 921 923 923 923 923 923 926 926 926 928 928 928 928 931 931 933 933 936 936 939 941 941 944 944 944 946 949 952 954 957 959 962 962 965 965 968 970 976 978 981 984 987 987 987 987 987 990 990 990 990 993 993 993 990 990 990 990 987 987 984 981 978 978 976 976 976 976 973 973 973 973 973 973 973 973 973 973 973 970 968 968 968 968 965 965 965 965 965 965 965 965 965 965 965 965 965 965 965 965 965 965 965 965 962 962 962 962 962 962 962 962 962 962 962 959 959 959 959 959 957 954 952 952 952 949 946 949 946 946 946 946 946 946 946 944 944 944 944 946 944 944 944 944 944 941 941 941 941 941 939 939 936 936 936 936 933 933 933 933 933 931 931 931 928 928 928 926 926 926 923 923 923 923 923 923 926 926 926 928 928 928 928 931 931 931 931 933 933 933 936 936 936 936 939 936 939 939 941 941 941 944 944 946 946 946 949 946 949 949 949 949 946 946 949 949 949 949 952 952 952 952 952 954 954 954 957 957 959 962 965 968 970 973 976 978 984 990 995 998 1004 1004 1007 1007 1004 1007 0 0 0 0 0 0 0 0 0 0 0 0 0 0 0 0 0 0 0 0 0 0 0 0 0 990 984 981 981 984 987 987 987 987 1001 1001 1007 1007 1007 1004 1004 1004 998 1001 1001 1022 0 1013 1013 1013 1013 1013 1013 0 0 0 0 0 0 0 0 0 0 0 0 0 0 0 0 0 0 0 0 0 0 0 0 0 0 0 0 0 0 0 0 0 0 0 895 892 895 892 890 892 890 888 888 886 883 883 881 879 879 877 874 874 872 868 868 863 861 855 853 849 844 840 840 838 838 836 836 836 836 836 834 832 830 830 830 828 828 828 828 828 828 828 828 830 830 830 830 832 832 832 832 832 832 834 834 834 834 836 836 838 840 840 842 844 844 842 0 0 0 0 0 0 0 0 0 0 0 0 0 0 0 0 0 0 0 0 0 0 0 0 0 0 0 0 0 0 0 0 0 0 0 0 0 0 0 3293 3262 3293 3293 3293 3293 3293 3293 3293 3293 3293 3324 3324 3324 3324 3324 3324 3324 3324 3324 3293 3293 3262 3262 3262 3262 3262 3262 3262 3262 3262 3262 3262 3262 3293 3293 3293 3293 3293 3293 3293 3293 3293 3293 3262 3262 3262 3231 3201 3172 3143 3143 3115 3087 3087 3087 3087 3033 3033 3033 3033 3006 3006 2955 2930 2905 2930 2857 2834 2834
    0 0 0 0 0 0 0 0 0 0 0 0 0 0 0 0 0 0 0 0 0 0 0 0 0 0 0 0 0 0 0 0 0 0 0 0 0 0 0 0 0 0 0 0 0 0 0 0 0 0 0 0 0 0 0 2434 2451 2434 2417 2400 2400 2384 2384 2367 2351 2335 2335 2320 2320 2304 2289 2274 2259 2259 2244 2230 2215 2215 2215 2215 2215 2215 2230 2230 2244 2259 2274 2274 2980 2980 3059 3059 3059 3059 3059 3059 3059 3059 3059 3033 3033 3059 3059 3059 3059 3059 3059 3059 3087 3087 3087 3087 3087 3059 3087 3059 923 923 923 923 921 916 916 919 916 916 919 919 919 921 921 921 923 923 923 923 926 926 926 928 928 933 933 933 936 939 939 941 941 944 944 946 946 949 954 957 959 962 962 965 965 968 970 973 978 981 984 984 987 987 987 987 987 990 990 990 990 990 990 990 990 990 990 987 987 984 981 978 978 976 976 976 973 973 970 970 970 970 970 970 970 970 970 968 968 968 968 965 965 965 965 965 965 965 965 965 965 965 965 965 965 965 965 965 965 965 965 965 965 962 962 962 962 962 962 959 959 959 959 959 959 957 957 959 957 957 954 952 952 949 946 946 946 946 946 944 944 944 944 944 944 944 944 944 944 944 944 944 941 941 941 941 939 939 939 939 936 936 936 936 936 933 933 933 931 931 928 928 928 926 926 926 923 923 923 923 923 923 923 923 923 923 926 926 926 926 928 928 928 931 931 931 933 933 933 936 936 936 936 939 936 936 939 939 941 941 941 944 944 944 946 946 944 946 946 946 946 946 946 946 949 949 949 949 952 952 952 952 952 952 954 954 957 959 959 965 968 970 973 976 978 981 987 993 1001 1004 1004 1007 1007 1004 1007 0 0 0 0 0 0 0 0 0 0 0 0 0 0 0 0 0 0 0 0 0 0 0 0 0 0 0 0 978 981 984 984 984 984 993 998 1004 1007 1007 1004 1004 1004 1019 1019 1022 1022 0 1013 1013 1013 1013 0 0 0 0 0 0 0 0 0 0 0 0 0 0 0 0 0 0 0 0 0 0 0 0 0 0 0 0 0 0 0 0 0 0 0 0 0 0 895 895 892 892 892 890 890 890 888 886 883 883 881 879 879 877 874 872 872 872 868 863 859 855 853 849 844 842 844 842 838 838 838 838 838 836 834 834 832 832 830 828 830 830 830 830 830 830 832 832 832 832 834 834 834 834 834 834 834 836 836 836 836 838 840 842 842 844 844 844 842 0 0 0 0 0 0 0 0 0 0 0 0 0 0 0 0 0 0 0 0 0 0 0 0 0 0 0 0 0 0 0 0 0 0 0 0 0 0 3262 3293 3293 3293 3293 3293 3293 3262 3293 3293 3293 3293 3293 3324 3324 3324 3324 3324 3324 3324 3324 3324 3293 3262 3262 3262 3262 3262 3262 3262 3262 3262 3262 3262 3262 3262 3262 3262 3262 3262 3262 3262 3262 3262 3262 3262 3231 3231 3231 3201 3172 3143 3143 3115 3087 3087 3087 3087 3087 3033 3033 3006 2980 2980 2930 2930 2905 2905 2834 2834 2834</data></dframe>
</opencv_storage>
