<?xml version="1.0"?>
<opencv_storage>
<dframe type_id="opencv-matrix">
  <rows>35</rows>
  <cols>640</cols>
  <dt>w</dt>
  <data>
    0 0 0 0 0 0 0 0 0 0 0 0 0 0 0 0 0 0 0 0 0 0 0 0 0 0 0 0 0 0 0 0 0 0 0 0 0 0 0 0 0 0 0 0 0 0 0 0 0 0 0 0 0 0 0 0 0 0 0 0 0 0 0 0 0 0 0 0 0 0 0 0 0 0 0 0 0 0 0 0 0 0 0 0 2021 2033 2033 2033 2045 2045 2057 2069 2082 2082 2082 2095 2095 2095 2095 2095 2095 2107 2107 2107 2120 2120 2120 2120 2120 2120 2120 2120 2120 2120 2133 2133 2133 2133 2133 2133 2133 2147 2147 2147 2147 0 0 0 0 0 0 3390 3390 3390 3390 3423 3423 3423 3423 3423 3423 3458 3458 3493 3493 3493 3493 3493 3493 3493 3493 3493 3493 3493 3493 3493 3493 3493 3493 3493 3493 3493 3458 3458 3458 3458 3493 3493 3423 3493 3493 3528 3528 3528 3493 3493 3458 3493 3458 3458 3458 3458 3493 3493 3493 3493 3493 3493 3528 3528 3528 3528 3528 3528 3528 3528 3458 3493 3493 3493 3493 3493 3493 3493 3528 3528 3565 3565 3565 3640 3679 1104 1104 1100 1100 1100 1097 1076 1073 1073 1060 1056 1056 1056 1056 1053 1053 1050 1047 1047 1047 1047 1047 1044 1044 1044 1044 1044 1044 1040 1040 1040 1040 1040 1040 1040 1037 1037 1037 1037 1037 1037 1037 1040 1040 1040 1040 1040 1040 1040 1044 1040 1040 1044 1044 1044 1044 1047 1044 1047 1047 1053 1053 1056 1056 1060 1060 1063 1063 1066 1069 1069 1073 1076 1076 1079 1079 1083 1086 1086 1090 1090 1093 1093 1097 1097 1100 1100 1104 1104 1111 1114 0 0 0 0 0 0 0 0 0 0 0 619 618 619 619 620 620 619 619 619 620 620 620 620 620 620 620 620 620 620 620 620 621 621 621 621 621 621 621 621 621 621 621 622 622 622 622 622 623 623 623 623 623 623 623 623 624 624 624 624 624 624 624 625 625 625 625 625 625 627 627 627 627 627 627 627 627 627 627 627 628 628 628 628 629 629 630 630 630 629 630 630 630 630 630 631 631 631 631 631 631 631 632 632 632 632 632 632 634 634 634 634 635 635 635 635 635 636 636 636 636 636 636 636 637 637 637 638 638 638 638 638 638 639 639 639 639 639 641 641 639 639 639 639 639 639 641 641 641 641 641 641 641 641 642 642 642 643 643 643 644 644 644 644 644 644 644 644 645 647 647 647 647 647 647 645 647 647 647 647 647 648 648 648 648 649 649 649 649 649 650 650 650 650 651 651 651 651 653 653 653 651 653 653 653 653 653 653 654 654 654 654 654 654 654 654 655 655 655 656 656 656 658 658 658 658 658 658 658 659 0 0 0 0 0 0 0 0 0 0 0 0 0 0 0 0 0 0 0 0 0 0 0 0 0 0 0 0 0 0 0 0 0 0 0 0 0 0 0 0 0 0 0 0 0 0 0 0 0 0 0 0 0 3679 3718 3718 3718 3679 3679 3679 3679 3679 3679 3679 3602 3602 3602 3565 3565 3528 3528 3528 3528 3493 3493 3458 3458 3458 3458 3458 3458 3423 3423 3423 3423 3357 3357 3324 3324 3324 3324 3324 3324 3324 3293 3262 3293 3262 3262 3262 3262 3262 3262 3231 3201 3201 3172 3201
    0 0 0 0 0 0 0 0 0 0 0 0 0 0 0 0 0 0 0 0 0 0 0 0 0 0 0 0 0 0 0 0 0 0 0 0 0 0 0 0 0 0 0 0 0 0 0 0 0 0 0 0 0 0 0 0 0 0 0 0 0 0 0 0 0 0 0 0 0 0 0 0 0 0 0 0 0 0 0 0 0 0 0 0 2021 2033 2033 2033 2045 2057 2057 2069 2082 2082 2082 2095 2095 2095 2095 2095 2095 2095 2107 2107 2120 2120 2107 2120 2120 2120 2120 2120 2120 2120 2133 2133 2133 2133 2133 2133 2133 2147 2133 2147 2147 0 0 0 0 0 0 3390 3390 3390 3390 3390 3423 3423 3423 3423 3423 3458 3458 3458 3493 3493 3458 3458 3493 3458 3458 3493 3493 3493 3493 3493 3493 3493 3493 3493 3493 3493 3458 3458 3458 3458 3493 3493 3493 3493 3493 3528 3528 3528 3528 3493 3458 3493 3493 3493 3458 3493 3493 3493 3493 3493 3493 3493 3528 3528 3528 3528 3528 3528 3528 3528 3493 3493 3493 3493 3493 3493 3493 3528 3528 3528 3565 3565 3602 3602 3640 1107 1104 1100 1100 1100 1097 1086 1073 1073 1063 1060 1056 1056 1056 1053 1050 1047 1047 1047 1047 1044 1044 1044 1044 1044 1044 1044 1040 1040 1040 1040 1037 1040 1037 1037 1037 1037 1034 1034 1037 1037 1037 1037 1040 1040 1040 1040 1040 1040 1040 1040 1040 1040 1040 1044 1044 1044 1044 1047 1047 1050 1050 1053 1056 1056 1060 1060 1063 1066 1069 1069 1073 1073 1076 1079 1083 1083 1083 1086 1086 1090 1090 1093 1097 1097 1100 1100 1104 1104 0 0 0 0 0 0 0 0 0 0 0 0 0 619 618 619 619 620 620 619 619 619 619 620 619 619 619 619 619 619 620 619 620 620 621 621 621 621 621 621 621 621 621 621 621 622 622 622 622 622 622 623 623 622 623 623 623 623 624 624 624 624 624 624 624 625 625 625 625 625 625 625 625 627 627 628 627 627 627 627 627 627 628 628 628 628 629 629 630 630 630 630 630 630 630 630 630 631 631 631 631 632 631 631 632 632 632 632 632 634 634 634 634 634 635 635 635 635 635 636 636 636 636 636 636 636 637 637 637 638 638 638 637 637 638 638 639 639 639 639 641 641 639 639 639 639 639 639 641 641 641 641 641 641 641 641 642 641 642 643 643 643 644 644 644 644 644 644 644 644 645 645 645 647 647 647 647 645 647 647 647 645 647 647 648 648 648 648 649 649 649 649 650 650 650 650 650 650 651 651 651 651 651 651 653 653 653 653 653 653 654 654 654 654 655 655 655 655 655 655 656 656 656 656 658 658 658 658 658 658 658 658 658 0 0 0 0 0 0 0 0 0 0 0 0 0 0 0 0 0 0 0 0 0 0 0 0 0 0 0 0 0 0 0 0 0 0 0 0 0 0 0 0 0 0 0 0 0 0 0 0 0 0 0 0 3718 3718 3718 3718 3718 3679 3679 3679 3679 3679 3679 3565 3565 3565 3565 3565 3565 3528 3528 3528 3528 3493 3458 3458 3458 3458 3458 3458 3423 3423 3423 3493 3390 3390 3357 3357 3357 3357 3324 3324 3293 3293 3262 3262 3262 3262 3231 3262 3231 3231 3231 3201 3201 3172 3172
    0 0 0 0 0 0 0 0 0 0 0 0 0 0 0 0 0 0 0 0 0 0 0 0 0 0 0 0 0 0 0 0 0 0 0 0 0 0 0 0 0 0 0 0 0 0 0 0 0 0 0 0 0 0 0 0 0 0 0 0 0 0 0 0 0 0 0 0 0 0 0 0 0 0 0 0 0 0 0 0 0 0 0 2021 2021 2033 2033 2033 2045 2057 2057 2069 2082 2082 2082 2082 2082 2095 2095 2095 2095 2107 2107 2107 2120 2120 2120 2120 2120 2120 2120 2120 2120 2120 2120 2133 2133 2133 2133 2133 2133 2133 2133 2133 2147 0 0 0 0 0 0 3390 3423 3390 3390 3423 3423 3423 3423 3423 3423 3458 3458 3458 3493 3458 3458 3458 3458 3458 3458 3458 3493 3458 3493 3493 3493 3493 3493 3493 3493 3493 3493 3493 3458 3458 3493 3493 3493 3493 3493 3528 3528 3528 3493 3493 3458 3493 3493 3493 3493 3493 3493 3493 3493 3493 3493 3493 3528 3528 3528 3528 3528 3528 3528 3528 3493 3493 3493 3493 3493 3493 3493 3528 3528 3528 3565 3565 3565 3602 3602 1107 1107 1104 1100 1100 1093 1079 1073 1073 1063 1060 1056 1056 1053 1053 1050 1047 1047 1047 1044 1044 1044 1044 1044 1040 1040 1040 1040 1037 1040 1037 1037 1040 1037 1037 1034 1034 1034 1034 1037 1037 1037 1037 1040 1040 1040 1040 1040 1040 1040 1040 1040 1040 1040 1040 1044 1044 1044 1047 1047 1047 1050 1053 1053 1056 1060 1060 1063 1066 1066 1069 1073 1073 1076 1079 1079 1083 1083 1083 1086 1086 1090 1090 1097 1097 1100 1104 1107 1107 0 0 0 0 0 0 0 0 0 0 0 0 617 619 619 619 619 620 620 619 619 619 619 620 620 619 619 619 619 619 619 619 619 620 621 621 621 621 621 621 621 621 621 621 621 622 622 622 622 622 622 623 623 622 623 623 623 623 624 624 624 624 624 624 624 625 625 624 625 625 625 625 625 627 627 627 627 627 627 627 627 627 628 628 628 628 629 629 630 630 630 630 630 630 630 630 630 631 631 631 631 631 631 631 632 632 632 632 632 632 634 634 634 634 634 635 635 635 635 635 635 636 636 636 636 636 636 637 637 637 637 637 637 637 638 638 639 639 639 639 641 641 639 639 639 639 639 639 641 641 641 641 641 641 641 641 641 642 642 643 643 643 643 644 644 644 644 644 644 644 645 645 645 645 645 645 645 645 647 645 645 647 647 647 648 648 648 648 648 649 649 649 649 649 650 650 650 651 651 651 651 651 653 651 653 653 653 653 653 653 654 654 654 654 655 655 655 654 655 655 656 656 656 656 658 658 658 658 658 658 658 658 658 0 0 0 0 0 0 0 0 0 0 0 0 0 0 0 0 0 0 0 0 0 0 0 0 0 0 0 0 0 0 0 0 0 0 0 0 0 0 0 0 0 0 0 0 0 0 0 0 0 0 0 0 3718 3718 3718 3718 3718 3679 3679 3679 3679 3679 3679 3565 3565 3602 3565 3565 3565 3565 3565 3565 3565 3528 3528 3528 3493 3528 3458 3458 3458 3423 3493 3493 3390 3357 3357 3357 3357 3357 3324 3324 3324 3293 3262 3262 3231 3262 3231 3231 3201 3201 3201 3201 3172 3172 3172
    0 0 0 0 0 0 0 0 0 0 0 0 0 0 0 0 0 0 0 0 0 0 0 0 0 0 0 0 0 0 0 0 0 0 0 0 0 0 0 0 0 0 0 0 0 0 0 0 0 0 0 0 0 0 0 0 0 0 0 0 0 0 0 0 0 0 0 0 0 0 0 0 0 0 0 0 0 0 0 0 0 0 0 2021 2021 2033 2033 2033 2045 2057 2057 2069 2069 2082 2082 2082 2082 2095 2095 2095 2095 2107 2107 2107 2120 2120 2120 2120 2120 2120 2120 2120 2120 2120 2120 2120 2120 2120 2133 2120 2133 2133 2133 2133 2133 0 0 0 0 0 0 0 3423 3423 3423 3423 3423 3458 3423 3423 3423 3458 3423 3458 3458 3458 3458 3458 3458 3458 3458 3493 3493 3458 3493 3493 3493 3493 3493 3493 3493 3493 3458 3458 3458 3458 3458 3493 3493 3528 3493 3528 3528 3528 3528 3493 3458 3493 3493 3493 3458 3493 3493 3493 3493 3493 3493 3493 3528 3528 3528 3528 3528 3528 3528 3528 3493 3493 3493 3493 3493 3493 3493 3493 3528 3528 3528 3565 3565 3602 3602 3640 1104 1100 1097 1097 1093 1083 1073 1073 1060 1056 1056 1056 1053 1053 1047 1047 1044 1044 1044 1044 1040 1040 1040 1040 1040 1037 1037 1037 1037 1037 1034 1034 1034 1034 1034 1034 1034 1034 1034 1034 1037 1037 1037 1037 1040 1037 1037 1040 1040 1037 1037 1040 1040 1040 1044 1044 1044 1047 1047 1047 1050 1053 1053 1056 1060 1060 1060 1063 1066 1069 1069 1073 1076 1079 1079 1083 1083 1083 1086 1086 1086 1090 1093 1097 1100 1104 1104 0 0 0 0 0 0 0 0 0 0 0 0 0 618 618 619 619 619 620 620 619 619 619 619 619 619 619 619 619 619 619 619 619 619 620 620 621 621 621 621 621 621 621 621 621 621 621 622 622 622 622 622 622 622 622 623 623 623 623 624 624 624 624 624 624 624 625 625 625 625 625 625 625 625 625 627 627 627 627 627 627 627 627 628 628 628 628 629 629 630 630 630 630 630 630 630 630 630 630 631 631 631 631 631 631 632 632 632 632 632 632 634 634 634 634 634 635 635 635 635 635 635 636 636 636 636 636 636 637 637 637 637 637 637 637 637 638 638 638 639 639 639 641 639 639 639 639 639 639 641 641 641 641 641 641 641 641 642 642 642 643 643 643 643 643 644 644 644 644 644 645 645 645 645 645 647 647 647 647 647 647 647 647 647 647 648 648 648 648 648 649 649 649 649 649 649 650 650 651 651 651 651 651 653 651 651 653 653 653 653 654 654 654 655 655 655 655 654 654 654 655 655 655 656 656 658 658 658 658 658 658 658 658 656 655 0 0 0 0 0 0 0 0 0 0 0 0 0 0 0 0 0 0 0 0 0 0 0 0 0 0 0 0 0 0 0 0 0 0 0 0 0 0 0 0 0 0 0 0 0 0 0 0 0 0 0 3718 3718 3718 3718 3759 3679 3679 3679 3679 3679 3679 3602 3602 3602 3565 3565 3565 3565 3565 3565 3565 3565 3528 3565 3493 3458 3458 3458 3423 3423 3423 3423 3357 3324 3324 3324 3324 3357 3324 3324 3293 3293 3262 3262 3231 3231 3231 3201 3201 3172 3172 3172 3172 3143 3143
    0 0 0 0 0 0 0 0 0 0 0 0 0 0 0 0 0 0 0 0 0 0 0 0 0 0 0 0 0 0 0 0 0 0 0 0 0 0 0 0 0 0 0 0 0 0 0 0 0 0 0 0 0 0 0 0 0 0 0 0 0 0 0 0 0 0 0 0 0 0 0 0 0 0 0 0 0 0 0 0 0 0 0 2033 2033 2033 2033 2045 2045 2057 2057 2069 2069 2069 2082 2082 2082 2095 2095 2095 2095 2107 2107 2120 2120 2120 2120 2120 2120 2120 2120 2107 2120 2107 2120 2120 2120 2120 2120 2120 2120 2133 2120 2133 2133 2147 0 0 0 0 0 0 3423 3423 3423 3423 3423 3458 3423 3423 3423 3423 3423 3458 3458 3458 3458 3458 3458 3458 3458 3458 3458 3458 3458 3493 3493 3493 3493 3493 3458 3458 3458 3458 3458 3458 3458 3493 3493 3528 3528 3528 3528 3528 3528 3493 3493 3493 3528 3493 3493 3528 3528 3528 3528 3528 3528 3528 3528 3528 3528 3528 3528 3528 3528 3528 3493 3493 3493 3493 3493 3493 3493 3493 3528 3528 3565 3528 3565 3602 3602 3640 1104 1100 1097 1097 1086 1079 1076 1073 1060 1056 1056 1056 1053 1050 1047 1047 1044 1044 1040 1040 1040 1040 1037 1037 1037 1034 1034 1034 1034 1034 1034 1034 1034 1034 1034 1034 1034 1034 1034 1034 1034 1037 1037 1037 1037 1037 1037 1037 1037 1037 1037 1037 1040 1040 1044 1044 1044 1047 1047 1047 1050 1050 1053 1056 1056 1060 1060 1063 1066 1069 1069 1073 1073 1079 1079 1083 1083 1083 1086 1086 1086 1090 1093 1097 1100 1104 1111 1111 0 0 1140 1144 0 0 0 0 0 0 0 0 618 618 619 619 619 619 620 619 619 619 619 619 619 619 619 619 619 619 619 619 620 620 620 621 621 621 621 621 621 621 621 621 621 622 622 622 622 622 622 622 622 622 623 623 623 623 623 624 623 624 624 624 624 625 625 624 625 625 624 625 625 625 625 627 627 627 627 627 627 627 628 628 628 628 629 629 630 630 630 630 630 630 630 630 630 630 631 631 631 631 631 631 631 632 632 632 632 632 634 634 634 634 634 635 635 635 635 635 635 636 636 636 636 636 636 636 636 637 637 636 637 637 637 638 638 638 639 639 641 641 639 639 639 639 639 639 641 641 641 641 641 641 639 641 641 641 642 643 643 643 643 643 644 644 644 644 644 644 644 644 644 645 645 645 645 645 647 647 647 647 647 648 648 648 648 648 648 649 649 649 649 649 649 650 650 650 651 651 651 651 651 651 651 653 653 653 653 653 654 654 655 654 655 655 654 654 654 655 655 655 655 656 658 658 658 658 658 658 658 658 656 0 0 0 0 0 0 0 0 0 0 0 0 0 0 0 0 0 0 0 0 0 0 0 0 0 0 0 0 0 0 0 0 0 0 0 0 0 0 0 0 0 0 0 0 0 0 0 0 0 0 0 0 3718 3718 3718 3759 3759 3679 3679 3679 3679 3679 3640 3640 3640 3640 3565 3565 3565 3565 3565 3565 3565 3528 3493 3493 3458 3458 3458 3423 3423 3423 3423 3423 3390 3423 3390 3357 3357 3357 3324 3324 3293 3293 3231 3231 3231 3231 3201 3201 3201 3172 3172 3172 3172 3143 3143
    0 0 0 0 0 0 0 0 0 0 0 0 0 0 0 0 0 0 0 0 0 0 0 0 0 0 0 0 0 0 0 0 0 0 0 0 0 0 0 0 0 0 0 0 0 0 0 0 0 0 0 0 0 0 0 0 0 0 0 0 0 0 0 0 0 0 0 0 0 0 0 0 0 0 0 0 0 0 0 0 0 0 0 2033 2033 2033 2033 2045 2045 2057 2069 2069 2069 2069 2082 2082 2082 2095 2095 2095 2095 2107 2107 2120 2120 2120 2120 2120 2120 2107 2107 2107 2107 2107 2107 2107 2107 2107 2107 2107 2107 2120 2120 2133 2133 2147 0 0 0 0 0 0 0 3458 3458 3423 3423 3458 3423 3423 3423 3423 3423 3423 3458 3458 3458 3423 3458 3458 3458 3458 3458 3458 3493 3493 3493 3493 3493 3493 3458 3458 3458 3458 3458 3458 3458 3493 3493 3528 3528 3528 3528 3528 3528 3493 3493 3493 3493 3493 3493 3493 3493 3493 3493 3493 3493 3528 3528 3528 3528 3528 3528 3528 3528 3528 3493 3493 3493 3493 3493 3493 3528 3528 3528 3528 3528 3528 3565 3565 3602 3602 1104 1100 1097 1097 1090 1076 1076 1063 1060 1056 1056 1053 1053 1050 1047 1047 1044 1044 1040 1040 1040 1037 1037 1037 1037 1034 1034 1034 1034 1034 1034 1034 1034 1034 1034 1034 1034 1034 1034 1034 1034 1034 1034 1034 1037 1037 1037 1037 1037 1037 1037 1037 1037 1040 1040 1044 1044 1044 1047 1047 1047 1050 1053 1056 1056 1056 1060 1063 1063 1069 1069 1073 1073 1079 1079 1083 1083 1083 1086 1086 1086 1090 1097 1100 1100 1104 1111 1111 0 1144 1144 1148 0 0 0 0 0 0 0 0 618 619 619 619 619 620 620 619 619 619 619 619 619 618 619 619 619 619 619 619 620 620 620 621 621 620 621 621 621 621 621 621 622 622 622 622 622 622 622 622 622 622 622 622 623 623 624 624 624 624 624 624 624 625 624 624 625 625 624 625 625 625 625 625 625 627 627 627 627 627 628 628 628 628 629 629 630 630 629 630 630 630 630 630 630 630 631 631 631 631 631 631 631 631 632 632 632 632 634 634 634 634 634 635 635 635 635 635 635 636 636 636 636 636 636 636 636 637 637 636 637 637 637 638 638 638 639 639 639 641 639 639 639 639 639 639 639 639 641 641 641 641 639 641 641 641 642 642 643 643 643 643 643 643 644 644 644 644 644 644 644 645 645 645 645 647 647 648 648 648 648 648 648 648 648 648 649 649 649 649 649 649 649 650 650 650 650 651 651 651 651 651 651 653 653 653 653 653 654 654 654 654 655 655 654 654 654 655 655 655 655 655 656 658 658 658 658 658 658 658 656 0 0 0 0 0 0 0 0 0 0 0 0 0 0 0 0 0 0 0 0 0 0 0 0 0 0 0 0 0 0 0 0 0 0 0 0 0 0 0 0 0 0 0 0 0 0 0 0 0 0 0 0 3718 3718 3718 3759 3759 3679 3679 3679 3679 3679 3640 3640 3679 3679 3565 3565 3565 3565 3565 3565 3565 3528 3493 3493 3458 3423 3458 3423 3423 3423 3423 3423 3390 3390 3357 3357 3357 3357 3357 3324 3293 3262 3201 3201 3172 3172 3172 3172 3172 3143 3143 3143 3143 3143 3143
    0 0 0 0 0 0 0 0 0 0 0 0 0 0 0 0 0 0 0 0 0 0 0 0 0 0 0 0 0 0 0 0 0 0 0 0 0 0 0 0 0 0 0 0 0 0 0 0 0 0 0 0 0 0 0 0 0 0 0 0 0 0 0 0 0 0 0 0 0 0 0 0 0 0 0 0 0 0 0 0 0 0 0 2033 2033 2033 2045 2045 2045 2057 2069 2069 2069 2082 2082 2082 2082 2095 2095 2095 2095 2107 2107 2107 2107 2107 2107 2120 2120 2107 2107 2107 2120 2120 2120 2107 2120 2107 2120 2120 2107 2120 2120 2133 2133 2147 2147 0 0 0 0 0 3458 3458 3458 3423 3423 3423 3423 3423 3423 3423 3423 3423 3458 3423 3423 3423 3458 3458 3458 3458 3458 3458 3458 3493 3493 3493 3493 3458 3458 3458 3458 3458 3458 3458 3458 3493 3493 3528 3528 3528 3493 3493 3493 3458 3458 3493 3493 3493 3493 3493 3493 3493 3528 3528 3493 3493 3528 3528 3528 3528 3528 3528 3528 3528 3528 3493 3493 3493 3493 3493 3528 3528 3528 3528 3528 3528 3565 3565 3565 3565 1104 1100 1097 1097 1086 1079 1073 1063 1060 1056 1056 1053 1050 1050 1047 1044 1044 1044 1040 1040 1040 1037 1037 1037 1034 1034 1034 1034 1034 1034 1034 1034 1034 1034 1034 1034 1034 1034 1034 1034 1034 1034 1034 1034 1034 1034 1037 1037 1037 1037 1037 1037 1040 1040 1040 1040 1044 1044 1047 1047 1047 1050 1053 1053 1056 1056 1060 1060 1063 1066 1069 1073 1073 1079 1079 1083 1083 1086 1086 1086 1090 1090 1097 1100 1104 1104 1107 1111 1111 1140 1140 1148 1155 1155 0 0 0 0 0 0 618 619 619 619 619 620 620 619 619 619 618 619 619 619 619 619 619 619 619 619 620 620 620 620 620 620 621 621 621 621 621 621 621 622 622 622 622 622 622 622 622 623 623 623 623 623 623 624 623 624 624 624 624 625 624 624 625 625 624 625 625 625 625 625 625 627 627 627 627 627 628 628 628 628 629 629 629 629 629 629 630 630 630 630 630 630 631 631 631 631 631 631 631 631 632 632 632 632 634 634 634 634 634 635 635 635 635 635 635 635 636 636 636 636 636 636 636 636 636 636 636 637 637 637 638 638 639 639 639 639 638 638 638 639 639 639 639 639 639 639 639 639 639 639 639 641 641 642 643 643 643 643 643 643 644 644 644 644 644 644 644 645 645 645 645 645 647 647 647 647 648 648 648 648 648 648 648 649 649 649 649 649 649 650 650 650 650 651 651 651 651 651 651 651 653 651 653 653 654 654 654 654 655 655 654 654 654 655 655 655 655 655 656 658 658 658 658 658 658 658 658 0 0 0 0 0 0 0 0 0 0 0 0 0 0 0 0 0 0 0 0 0 0 0 0 0 0 0 0 0 0 0 0 0 0 0 0 0 0 0 0 0 0 0 0 0 0 0 0 0 0 0 0 0 3759 3759 3759 3759 3718 3679 3679 3679 3640 3640 3640 3679 3640 3640 3528 3528 3528 3565 3565 3565 3528 3493 3458 3458 3423 3458 3458 3458 3423 3423 3423 3423 3390 3390 3357 3357 3357 3357 3324 3262 3231 3201 3172 3172 3172 3172 3172 3172 3143 3143 3143 3143 3143 3143
    0 0 0 0 0 0 0 0 0 0 0 0 0 0 0 0 0 0 0 0 0 0 0 0 0 0 0 0 0 0 0 0 0 0 0 0 0 0 0 0 0 0 0 0 0 0 0 0 0 0 0 0 0 0 0 0 0 0 0 0 0 0 0 0 0 0 0 0 0 0 0 0 0 0 0 0 0 0 0 0 0 0 2021 2033 2033 2045 2045 2045 2057 2057 2069 2082 2082 2082 2082 2095 2095 2095 2095 2095 2095 2107 2107 2107 2107 2107 2107 2107 2107 2107 2107 2107 2107 2107 2107 2107 2120 2120 2120 2120 2120 2120 2120 2133 2133 2133 2133 2147 0 0 0 0 3493 3493 3458 3458 3458 3458 3423 3423 3423 3423 3423 3423 3423 3423 3423 3423 3423 3458 3458 3458 3458 3458 3458 3458 3458 3458 3458 3458 3458 3458 3458 3458 3458 3458 3458 3493 3493 3493 3493 3493 3493 3493 3493 3493 3458 3458 3493 3493 3493 3493 3493 3493 3493 3493 3493 3493 3493 3528 3528 3528 3528 3528 3565 3565 3528 3528 3493 3493 3493 3493 3528 3528 3528 3528 3528 3528 3565 3565 3528 3565 1104 1104 1100 1097 1086 1076 1069 1063 1060 1056 1056 1050 1050 1047 1047 1044 1044 1040 1040 1040 1037 1037 1037 1037 1037 1037 1034 1034 1034 1034 1034 1034 1034 1034 1034 1034 1034 1034 1034 1034 1034 1034 1034 1034 1034 1034 1037 1037 1037 1037 1037 1037 1040 1040 1040 1040 1040 1044 1044 1047 1047 1050 1050 1053 1056 1056 1056 1060 1063 1066 1069 1073 1073 1079 1079 1083 1083 1086 1086 1086 1086 1090 1093 1097 1104 1104 1107 1107 1140 1140 1140 1148 1148 1155 0 0 0 0 0 0 617 618 618 619 619 619 620 618 619 619 618 618 618 618 619 619 618 618 618 619 619 620 620 620 620 621 621 621 621 621 621 621 621 621 621 622 622 622 622 622 622 622 623 622 623 623 623 624 623 624 624 624 624 624 624 624 624 624 624 625 625 625 625 625 625 625 627 627 627 627 628 628 628 628 629 629 629 629 629 630 630 630 630 630 631 630 631 631 631 631 631 631 631 631 631 631 632 632 634 634 634 634 634 634 635 635 635 635 635 635 636 636 636 636 636 636 636 637 636 636 637 637 637 638 638 639 639 639 639 639 638 638 638 638 639 639 639 639 639 639 639 641 639 639 639 641 641 642 642 643 643 643 643 643 643 643 643 644 644 644 644 644 644 645 645 645 647 648 648 648 648 648 648 649 649 648 649 649 649 649 649 649 649 650 650 650 650 650 650 650 651 650 650 651 653 653 653 653 653 654 654 654 654 655 654 654 654 655 655 655 655 655 656 656 658 658 658 658 658 658 658 0 0 0 0 0 0 0 0 0 0 0 0 0 0 0 0 0 0 0 0 0 0 0 0 0 0 0 0 0 0 0 0 0 0 0 0 0 0 0 0 0 0 0 0 0 0 0 0 0 0 0 0 0 3759 3759 3759 3759 3718 3679 3679 3679 3640 3640 3640 3640 3640 3602 3528 3528 3565 3565 3565 3565 3528 3528 3493 3458 3423 3458 3458 3458 3423 3423 3390 3390 3390 3357 3357 3357 3357 3357 3324 3293 3262 3201 3201 3172 3172 3172 3172 3172 3172 3172 3172 3143 3143 3143
    0 0 0 0 0 0 0 0 0 0 0 0 0 0 0 0 0 0 0 0 0 0 0 0 0 0 0 0 0 0 0 0 0 0 0 0 0 0 0 0 0 0 0 0 0 0 0 0 0 0 0 0 0 0 0 0 0 0 0 0 0 0 0 0 0 0 0 0 0 0 0 0 0 0 0 0 0 0 0 0 0 0 2021 2033 2033 2033 2045 2045 2045 2057 2069 2082 2082 2082 2082 2082 2095 2095 2095 2095 2095 2095 2095 2107 2107 2107 2107 2107 2107 2107 2107 2107 2107 2120 2120 2120 2120 2120 2120 2133 2120 2133 2133 2133 2133 2147 2147 2133 0 0 0 0 3528 3493 3458 3423 3458 3423 3423 3423 3423 3423 3423 3423 3423 3423 3423 3423 3423 3458 3458 3458 3458 3423 3458 3458 3458 3458 3458 3458 3458 3458 3458 3458 3458 3458 3458 3458 3493 3493 3493 3493 3493 3493 3493 3458 3458 3458 3493 3493 3493 3493 3493 3493 3493 3493 3493 3493 3528 3528 3528 3528 3528 3565 3565 3565 3528 3493 3493 3493 3493 3493 3493 3493 3493 3493 3528 3528 3528 3528 3528 3528 1104 1100 1100 1097 1090 1060 1060 1060 1060 1056 1056 1050 1050 1047 1044 1044 1040 1040 1040 1037 1037 1037 1037 1037 1037 1037 1034 1037 1037 1037 1034 1034 1034 1034 1034 1034 1034 1034 1034 1034 1034 1034 1034 1034 1034 1034 1037 1037 1040 1040 1040 1040 1040 1040 1040 1040 1044 1044 1047 1047 1047 1050 1053 1053 1056 1056 1056 1060 1063 1066 1069 1073 1073 1079 1079 1083 1083 1086 1086 1086 1086 1090 1093 1097 1104 1104 1107 1107 1140 1140 1140 1148 1163 1163 1167 0 0 0 0 0 618 618 618 618 619 619 619 618 618 619 618 618 618 618 619 618 618 618 618 619 619 620 620 620 620 620 621 621 621 621 621 621 621 622 622 622 622 622 622 622 622 622 623 623 623 623 623 624 623 623 624 624 624 624 624 623 624 624 624 625 625 625 625 625 625 625 627 627 627 627 628 628 628 629 629 629 629 629 629 630 630 630 630 630 630 630 631 631 631 631 631 631 631 631 631 631 632 632 634 634 634 634 634 635 635 635 635 635 635 635 636 636 636 636 636 636 636 637 636 636 637 637 637 638 638 639 639 639 639 639 638 638 638 638 639 639 639 639 639 639 639 641 639 641 641 641 642 642 642 642 643 643 643 643 643 643 643 643 644 644 644 644 644 645 645 645 647 647 647 647 647 648 648 648 648 648 648 649 649 649 649 649 649 650 650 650 650 650 650 650 651 650 651 651 653 653 653 653 653 654 654 654 654 654 654 654 654 655 655 655 655 655 656 658 658 658 658 658 658 658 0 0 0 0 0 0 0 0 0 0 0 0 0 0 0 0 0 0 0 0 0 0 0 0 0 0 0 0 0 0 0 0 0 0 0 0 0 0 0 0 0 0 0 0 0 0 0 0 0 0 0 0 0 0 3759 3759 3759 3759 3718 3679 3679 3679 3640 3602 3640 3640 3602 3602 3528 3565 3565 3565 3565 3565 3528 3528 3493 3458 3458 3493 3458 3458 3458 3423 3423 3423 3423 3390 3357 3357 3324 3324 3293 3262 3262 3231 3231 3231 3231 3172 3172 3172 3172 3172 3172 3143 3143 3143
    0 0 0 0 0 0 0 0 0 0 0 0 0 0 0 0 0 0 0 0 0 0 0 0 0 0 0 0 0 0 0 0 0 0 0 0 0 0 0 0 0 0 0 0 0 0 0 0 0 0 0 0 0 0 0 0 0 0 0 0 0 0 0 0 0 0 0 0 0 0 0 0 0 0 0 0 0 0 0 0 0 0 2033 2033 2033 2045 2045 2045 2057 2069 2069 2082 2082 2082 2082 2082 2082 2082 2095 2095 2095 2095 2095 2095 2095 2107 2107 2107 2107 2107 2107 2107 2120 2120 2120 2107 2120 2120 2133 2133 2133 2133 2133 2147 2147 2147 2147 2147 0 0 0 0 0 3458 3458 3423 3390 3390 3390 3423 3423 3423 3423 3423 3423 3423 3423 3423 3423 3423 3423 3423 3458 3423 3458 3458 3458 3458 3458 3423 3458 3458 3423 3423 3458 3423 3423 3458 3423 3458 3458 3458 3458 3458 3458 3458 3423 3423 3458 3458 3458 3458 3493 3493 3493 3493 3493 3493 3493 3493 3528 3528 3528 3565 3528 3565 3528 3493 3493 3493 3493 3493 3493 3493 3493 3493 3493 3493 3528 3528 3493 3528 1100 1100 1097 1097 1086 1063 1063 1060 1060 1056 1053 1050 1050 1047 1044 1044 1044 1044 1040 1040 1037 1037 1037 1037 1037 1037 1037 1034 1037 1037 1034 1034 1034 1034 1034 1034 1034 1034 1034 1034 1034 1034 1034 1034 1037 1037 1037 1037 1040 1040 1040 1040 1044 1044 1044 1044 1044 1044 1047 1047 1047 1050 1053 1053 1056 1056 1056 1060 1063 1066 1069 1073 1073 1079 1079 1083 1086 1086 1086 1086 1086 1090 1093 1100 1104 1104 1111 1118 1140 1140 1140 1144 1148 1167 1167 0 0 0 0 0 0 0 617 618 618 618 619 618 618 618 618 618 618 618 618 618 618 618 618 619 619 619 619 620 620 620 621 621 621 621 621 621 621 621 622 622 622 622 622 622 622 623 622 622 622 623 623 624 623 623 624 624 624 624 623 623 624 624 624 625 625 625 625 627 627 627 627 627 627 628 628 628 628 628 629 629 628 628 628 629 630 630 630 630 630 630 631 631 630 631 631 631 631 631 631 631 631 632 634 634 634 634 634 635 635 635 635 635 635 635 636 636 636 636 636 636 636 636 636 636 637 637 637 637 638 639 639 639 639 639 638 638 638 638 639 639 639 639 639 639 641 641 639 641 641 641 641 642 642 642 642 643 643 643 643 643 643 643 644 644 644 644 644 645 645 645 645 647 647 647 647 648 648 648 648 648 648 649 649 649 649 649 649 650 650 650 650 650 650 650 651 651 651 653 653 653 653 653 653 653 653 653 653 654 654 654 654 654 655 655 655 656 656 658 658 658 658 658 658 658 0 0 0 0 0 0 0 0 0 0 0 0 0 0 0 0 0 0 0 0 0 0 0 0 0 0 0 0 0 0 0 0 0 0 0 0 0 0 0 0 0 0 0 0 0 0 0 0 0 0 0 0 0 0 3842 3718 3718 3718 3718 3718 3718 3679 3640 3640 3679 3679 3640 3640 3528 3565 3565 3565 3565 3565 3528 3528 3493 3458 3458 3493 3493 3493 3423 3423 3390 3423 3423 3390 3324 3357 3324 3324 3293 3262 3262 3262 3231 3231 3201 3172 3172 3201 3172 3172 3172 3172 3172 3143
    0 0 0 0 0 0 0 0 0 0 0 0 0 0 0 0 0 0 0 0 0 0 0 0 0 0 0 0 0 0 0 0 0 0 0 0 0 0 0 0 0 0 0 0 0 0 0 0 0 0 0 0 0 0 0 0 0 0 0 0 0 0 0 0 0 0 0 0 0 0 0 0 0 0 0 0 0 0 0 0 0 2033 2033 2033 2033 2045 2045 2045 2057 2069 2069 2082 2082 2082 2082 2082 2082 2082 2095 2095 2095 2095 2095 2095 2095 2095 2107 2107 2107 2120 2120 2120 2133 2133 2133 2133 2133 2147 2147 2147 2147 2147 2133 2147 2147 2147 2147 2147 0 0 0 0 0 3357 3357 3357 3390 3390 3390 3390 3390 3423 3423 3423 3423 3423 3423 3423 3423 3423 3423 3423 3458 3423 3458 3458 3458 3423 3423 3423 3423 3423 3423 3423 3423 3423 3423 3423 3423 3458 3458 3458 3458 3458 3458 3423 3423 3423 3458 3458 3458 3458 3458 3493 3493 3493 3493 3493 3493 3493 3528 3528 3528 3528 3528 3528 3493 3493 3493 3493 3493 3493 3493 3458 3493 3493 3493 3493 3493 3528 3493 3528 1100 1097 1097 1097 1090 1060 1060 1060 1056 1056 1053 1050 1050 1047 1047 1044 1044 1044 1040 1040 1037 1037 1037 1037 1037 1037 1037 1034 1037 1037 1037 1034 1034 1034 1034 1034 1034 1037 1034 1037 1034 1034 1037 1037 1037 1037 1037 1037 1040 1040 1044 1044 1044 1044 1044 1044 1044 1047 1047 1047 1047 1050 1053 1053 1056 1056 1056 1060 1063 1063 1069 1069 1073 1079 1083 1083 1086 1086 1086 1086 1086 1086 1093 1100 1104 1111 1114 1114 1118 1129 1129 0 0 0 0 0 0 0 0 0 0 0 617 618 618 618 619 618 618 618 618 618 618 618 618 618 618 618 618 619 619 619 619 620 620 620 620 620 620 621 621 621 621 621 622 622 622 622 623 622 622 622 622 622 622 622 622 623 623 623 624 624 624 624 624 624 624 625 625 625 625 625 625 625 625 625 625 627 627 627 627 627 628 628 628 628 628 628 628 629 629 630 630 630 630 630 631 631 630 630 631 631 631 631 631 631 631 632 632 632 632 634 634 635 635 635 635 635 635 636 636 636 636 636 636 636 636 636 636 636 636 637 637 637 638 638 639 639 639 639 638 638 638 638 639 639 639 639 639 639 639 639 639 641 639 639 641 642 642 642 642 642 643 643 643 643 643 644 644 644 644 644 645 645 645 645 645 647 647 647 647 648 648 648 648 648 648 649 649 649 649 649 650 650 650 649 649 650 650 650 651 650 651 651 653 653 653 653 653 653 653 653 653 653 653 654 654 654 655 655 655 656 656 656 658 658 658 658 658 658 659 0 0 0 0 0 0 0 0 0 0 0 0 0 0 0 0 0 0 0 0 0 0 0 0 0 0 0 0 0 0 0 0 0 0 0 0 0 0 0 0 0 0 0 0 0 0 0 0 0 0 0 0 0 3800 3718 3759 3718 3718 3679 3679 3679 3640 3640 3679 3640 3602 3602 3528 3565 3528 3528 3528 3528 3493 3493 3493 3458 3458 3458 3458 3458 3423 3423 3390 3390 3390 3390 3324 3324 3324 3324 3293 3262 3293 3262 3231 3231 3231 3231 3201 3201 3172 3172 3172 3172 3172 3172
    0 0 0 0 0 0 0 0 0 0 0 0 0 0 0 0 0 0 0 0 0 0 0 0 0 0 0 0 0 0 0 0 0 0 0 0 0 0 0 0 0 0 0 0 0 0 0 0 0 0 0 0 0 0 0 0 0 0 0 0 0 0 0 0 0 0 0 0 0 0 0 0 0 0 0 0 0 0 0 0 0 2033 2033 2033 2033 2045 2045 2045 2057 2057 2069 2069 2069 2082 2082 2082 2082 2082 2095 2095 2095 2095 2095 2095 2095 2107 2107 2107 2120 2120 2120 2120 2133 2133 2147 2147 2160 2160 2160 2160 2160 2160 2147 2160 2160 2160 2147 2147 2147 0 0 0 0 3357 3357 3357 3390 3390 3390 3390 3423 3423 3423 3423 3423 3423 3423 3423 3423 3423 3423 3423 3458 3423 3423 3458 3458 3423 3423 3423 3458 3423 3423 3423 3423 3423 3423 3423 3423 3458 3458 3458 3458 3423 3423 3423 3423 3423 3458 3458 3423 3458 3458 3458 3458 3458 3493 3493 3493 3493 3528 3528 3528 3528 3528 3528 3493 3493 3493 3493 3493 3493 3493 3493 3493 3493 3493 3493 3528 3528 3528 3528 3528 1100 1097 1097 1093 1060 1060 1060 1056 1056 1053 1050 1050 1047 1047 1044 1044 1044 1044 1040 1037 1037 1037 1037 1037 1037 1034 1037 1037 1037 1037 1034 1037 1034 1034 1037 1037 1034 1037 1037 1037 1037 1037 1037 1037 1040 1040 1040 1040 1044 1044 1044 1044 1044 1044 1047 1047 1047 1047 1050 1050 1050 1053 1053 1056 1056 1060 1060 1063 1066 1069 1073 1073 1079 1083 1083 1086 1086 1086 1086 1086 1090 1093 1104 1107 1111 1114 1114 1118 1118 1122 0 0 0 0 0 0 0 0 0 0 0 615 617 618 618 619 618 618 618 618 618 618 618 618 618 618 618 618 618 618 619 619 619 620 620 620 620 620 620 621 621 621 621 622 622 622 622 622 622 622 622 622 622 622 622 622 623 622 623 624 624 624 624 624 624 624 624 625 625 625 625 625 625 625 625 625 625 627 627 627 627 627 627 628 628 628 628 628 629 629 629 630 630 630 630 630 630 630 630 630 631 631 631 631 631 631 632 632 632 632 634 634 635 635 635 635 635 635 636 636 636 636 636 636 636 636 636 636 636 636 637 637 637 637 638 638 639 639 639 638 638 638 638 638 639 639 639 639 639 639 639 639 639 639 639 641 641 642 642 642 642 643 643 643 643 644 644 644 644 644 644 644 645 644 644 645 645 645 645 647 648 648 648 648 648 648 649 649 649 649 649 649 649 649 649 649 649 649 649 650 650 650 651 653 651 653 653 651 653 653 653 653 653 654 654 654 654 655 655 655 656 656 656 656 658 658 658 658 0 0 0 0 0 0 0 0 0 0 0 0 0 0 0 0 0 0 0 0 0 0 0 0 0 0 0 0 0 0 0 0 0 0 0 0 0 0 0 0 0 0 0 0 0 0 0 0 0 0 0 0 0 0 0 3759 3718 3718 3718 3718 3679 3679 3679 3679 3640 3679 3640 3602 3602 3565 3528 3528 3528 3493 3493 3493 3493 3493 3458 3458 3458 3458 3458 3423 3423 3390 3390 3390 3357 3357 3357 3357 3357 3324 3324 3324 3262 3231 3231 3201 3172 3172 3201 3172 3172 3172 3172 3172 3172
    0 0 0 0 0 0 0 0 0 0 0 0 0 0 0 0 0 0 0 0 0 0 0 0 0 0 0 0 0 0 0 0 0 0 0 0 0 0 0 0 0 0 0 0 0 0 0 0 0 0 0 0 0 0 0 0 0 0 0 0 0 0 0 0 0 0 0 0 0 0 0 0 0 0 0 0 0 0 0 0 0 2033 2033 2033 2033 2045 2045 2045 2057 2069 2069 2069 2082 2082 2082 2082 2082 2082 2095 2095 2095 2095 2107 2107 2120 2120 2120 2120 2133 2147 2147 2147 2160 2160 2174 2174 2174 2174 2174 2174 2174 2160 2160 2160 2160 2160 2160 2160 0 0 0 0 0 3390 3390 3390 3390 3423 3390 3390 3390 3390 3423 3423 3423 3423 3458 3423 3423 3423 3423 3423 3423 3423 3423 3423 3423 3423 3458 3423 3458 3423 3423 3423 3423 3423 3423 3423 3423 3458 3458 3458 3458 3458 3423 3423 3423 3423 3423 3423 3423 3423 3423 3423 3423 3423 3458 3458 3458 3493 3493 3528 3528 3528 3528 3528 3493 3493 3493 3493 3493 3493 3493 3493 3458 3458 3458 3493 3493 3528 3528 3493 3493 1100 1100 1100 1100 1060 1060 1060 1060 1056 1053 1050 1050 1047 1047 1047 1044 1044 1044 1044 1040 1040 1040 1040 1040 1037 1037 1037 1037 1037 1037 1034 1037 1034 1037 1037 1037 1040 1040 1044 1044 1044 1044 1044 1044 1044 1044 1040 1044 1044 1047 1044 1047 1044 1044 1047 1047 1047 1047 1050 1050 1050 1053 1053 1056 1056 1056 1060 1063 1066 1069 1073 1076 1083 1083 1083 1086 1086 1086 1086 1086 1086 1093 1107 1111 1114 1118 1118 1122 1125 1125 0 0 0 0 0 0 0 0 0 0 614 615 617 618 618 618 617 618 618 618 618 618 618 618 618 618 618 618 618 618 619 619 619 619 619 620 620 620 620 620 621 621 621 622 621 622 622 622 622 622 622 622 622 622 622 622 623 623 623 623 624 624 623 623 624 624 624 625 625 625 625 625 625 625 625 625 625 627 627 627 627 627 627 627 627 627 627 628 629 629 629 630 630 630 630 630 630 630 630 630 631 631 631 631 631 631 631 632 632 632 634 634 634 635 635 635 635 635 635 636 636 636 636 636 636 636 636 636 636 636 637 637 637 637 638 638 638 639 639 638 638 638 638 638 638 639 639 639 639 639 639 639 641 639 639 641 641 642 642 642 642 643 643 643 643 644 644 644 644 644 644 644 645 644 644 645 645 645 645 647 648 648 648 648 648 648 649 649 649 649 649 649 649 650 649 649 649 649 649 650 650 650 651 651 651 653 653 651 653 653 653 653 653 654 654 654 654 655 655 655 656 656 656 656 656 656 658 656 0 0 0 0 0 0 0 0 0 0 0 0 0 0 0 0 0 0 0 0 0 0 0 0 0 0 0 0 0 0 0 0 0 0 0 0 0 0 0 0 0 0 0 0 0 0 0 0 0 0 0 0 0 0 0 3759 3718 3718 3679 3679 3679 3679 3679 3679 3640 3640 3640 3602 3602 3565 3528 3528 3528 3493 3493 3493 3493 3493 3493 3493 3458 3458 3458 3423 3423 3390 3390 3357 3357 3324 3324 3324 3357 3324 3324 3324 3293 3231 3231 3201 3201 3201 3201 3172 3172 3172 3172 3172 3172
    0 0 0 0 0 0 0 0 0 0 0 0 0 0 0 0 0 0 0 0 0 0 0 0 0 0 0 0 0 0 0 0 0 0 0 0 0 0 0 0 0 0 0 0 0 0 0 0 0 0 0 0 0 0 0 0 0 0 0 0 0 0 0 0 0 0 0 0 0 0 0 0 0 0 0 0 0 0 0 0 2033 2033 2033 2033 2033 2045 2045 2045 2057 2069 2069 2069 2082 2082 2082 2082 2082 2082 2095 2095 2095 2107 2107 2120 2120 2133 2133 2133 2147 2160 2160 2160 2174 2174 2174 2187 2187 2187 2174 2174 2174 2174 2160 2160 2160 2160 2160 2160 0 0 0 0 3293 3357 3357 3390 3390 3390 3390 3390 3423 3423 3423 3423 3423 3423 3423 3423 3458 3458 3423 3423 3423 3423 3423 3423 3423 3423 3458 3423 3423 3423 3423 3423 3423 3423 3423 3423 3423 3458 3458 3458 3458 3458 3423 3423 3423 3423 3423 3423 3390 3390 3423 3423 3423 3423 3423 3458 3458 3493 3493 3528 3528 3493 3493 3493 3493 3493 3458 3458 3458 3458 3458 3458 3458 3458 3458 3458 3493 3528 3528 3528 3493 1100 1100 1100 1100 1060 1060 1060 1060 1060 1056 1056 1056 1047 1047 1047 1047 1047 1044 1044 1044 1044 1044 1044 1040 1040 1037 1037 1037 1037 1037 1037 1037 1037 1037 1037 1037 1040 1044 1044 1044 1044 1047 1044 1044 1044 1044 1044 1047 1047 1047 1047 1047 1047 1047 1047 1047 1047 1047 1050 1050 1050 1053 1053 1056 1056 1060 1060 1063 1066 1069 1073 1076 1079 1083 1086 1086 1086 1086 1086 1086 1090 1100 1111 1114 1122 1122 1125 1125 1125 1125 0 0 0 0 0 0 0 0 0 0 614 614 615 617 618 618 617 618 618 618 618 618 618 618 618 618 618 618 618 618 618 619 619 619 619 619 619 619 620 620 621 621 621 621 621 621 622 622 622 622 622 622 622 622 622 622 622 622 622 623 624 623 623 623 624 624 624 624 625 625 625 625 625 625 625 625 625 627 627 627 627 627 627 627 627 627 627 628 629 628 629 630 630 630 630 630 630 630 630 631 631 631 631 631 631 631 632 632 632 632 632 634 634 634 634 635 635 635 635 635 635 635 635 636 636 636 636 636 636 636 637 637 637 638 638 639 639 639 639 638 638 638 639 639 639 639 639 639 639 639 639 639 641 639 639 641 641 642 642 642 642 643 643 643 643 643 643 644 644 644 644 644 644 644 644 644 644 645 645 645 647 648 648 648 648 648 649 649 649 649 649 649 650 650 649 649 649 649 649 650 650 650 651 651 651 653 653 651 653 653 653 653 653 653 654 654 654 655 655 655 655 656 656 656 656 656 658 658 0 0 0 0 0 0 0 0 0 0 0 0 0 0 0 0 0 0 0 0 0 0 0 0 0 0 0 0 0 0 0 0 0 0 0 0 0 0 0 0 0 0 0 0 0 0 0 0 0 0 0 0 0 0 0 3759 3718 3718 3718 3718 3679 3679 3679 3679 3640 3640 3640 3602 3565 3565 3528 3528 3528 3493 3493 3493 3493 3493 3458 3493 3458 3458 3458 3423 3423 3390 3423 3357 3357 3324 3324 3293 3293 3293 3293 3293 3262 3231 3231 3201 3172 3172 3201 3201 3172 3172 3172 3231 3172
    0 0 0 0 0 0 0 0 0 0 0 0 0 0 0 0 0 0 0 0 0 0 0 0 0 0 0 0 0 0 0 0 0 0 0 0 0 0 0 0 0 0 0 0 0 0 0 0 0 0 0 0 0 0 0 0 0 0 0 0 0 0 0 0 0 0 0 0 0 0 0 0 0 0 0 0 0 0 0 0 2033 2033 2033 2033 2033 2045 2045 2045 2057 2069 2069 2069 2082 2082 2082 2082 2082 2082 2095 2095 2095 2107 2120 2133 2133 2147 2147 2147 2160 2174 2174 2174 2174 2187 2187 2187 2187 2187 2187 2187 2187 2174 2160 2160 2160 2160 2160 2160 0 0 0 0 0 3357 3324 3357 3357 3390 3390 3390 3390 3390 3423 3423 3423 3423 3423 3423 3423 3423 3423 3423 3423 3423 3423 3423 3423 3423 3423 3423 3458 3458 3458 3458 3423 3423 3423 3423 3423 3423 3423 3423 3423 3423 3423 3423 3423 3423 3423 3423 3423 3390 3423 3423 3423 3423 3423 3423 3458 3458 3493 3493 3493 3493 3493 3493 3458 3458 3458 3458 3458 3458 3458 3423 3423 3458 3458 3458 3493 3493 3493 3493 3528 1097 1100 1097 1097 1066 1066 1060 1060 1060 1060 1056 1056 1056 1056 1053 1047 1047 1047 1047 1047 1044 1044 1044 1044 1040 1040 1037 1037 1037 1037 1037 1037 1037 1037 1040 1040 1044 1044 1044 1047 1047 1044 1044 1044 1044 1047 1044 1047 1047 1047 1047 1047 1047 1047 1047 1047 1047 1047 1050 1050 1053 1053 1053 1056 1060 1060 1063 1066 1066 1069 1073 1076 1079 1083 1086 1086 1086 1090 1090 1090 1090 1107 1114 1118 1122 1125 1125 1125 1125 1125 0 0 0 0 0 0 0 0 0 0 614 615 615 617 618 618 617 618 618 618 618 618 618 618 618 618 618 618 618 618 618 618 618 618 619 619 619 619 620 620 621 621 621 622 621 622 622 622 622 622 622 622 622 622 622 622 622 622 622 623 623 623 623 623 623 624 624 624 625 625 625 625 625 625 625 625 625 625 627 625 627 627 627 627 627 627 627 628 628 628 629 630 630 630 630 630 630 630 630 631 631 631 631 631 631 631 632 632 632 631 632 632 634 634 634 635 635 635 635 635 635 635 635 636 636 636 636 636 636 636 636 637 637 637 638 638 638 639 639 638 638 638 638 639 639 639 639 639 639 639 639 641 641 639 639 641 642 642 642 642 642 643 643 643 643 643 643 643 643 644 644 644 644 644 644 644 644 645 645 645 647 648 648 648 648 648 648 648 648 648 649 649 649 649 649 649 649 649 650 650 650 651 651 651 653 653 653 651 653 653 653 653 653 653 654 654 654 655 655 655 655 656 656 656 656 656 656 656 0 0 0 0 0 0 0 0 0 0 0 0 0 0 0 0 0 0 0 0 0 0 0 0 0 0 0 0 0 0 0 0 0 0 0 0 0 0 0 0 0 0 0 0 0 0 0 0 0 0 0 0 0 0 3718 3718 3718 3718 3679 3679 3679 3679 3679 3679 3679 3640 3640 3602 3565 3528 3528 3528 3528 3493 3493 3493 3493 3493 3458 3458 3458 3458 3458 3423 3390 3390 3423 3390 3324 3324 3324 3293 3293 3293 3293 3293 3262 3231 3231 3201 3231 3201 3231 3231 3231 3201 3172 3201 3172
    0 0 0 0 0 0 0 0 0 0 0 0 0 0 0 0 0 0 0 0 0 0 0 0 0 0 0 0 0 0 0 0 0 0 0 0 0 0 0 0 0 0 0 0 0 0 0 0 0 0 0 0 0 0 0 0 0 0 0 0 0 0 0 0 0 0 0 0 0 0 0 0 0 0 0 0 0 0 0 2033 2033 2033 2033 2033 2045 2045 2045 2057 2057 2069 2069 2069 2069 2082 2082 2082 2082 2082 2095 2095 2107 2120 2133 2147 2147 2147 2147 2160 2174 2174 2174 2187 2187 2187 2187 2187 2187 2187 2187 2187 2187 2174 2174 2174 2174 2174 2160 2160 0 0 0 0 0 3324 3324 3357 3357 3390 3390 3390 3390 3390 3423 3423 3423 3423 3423 3458 3458 3423 3423 3423 3423 3423 3423 3423 3423 3423 3423 3423 3423 3423 3458 3423 3423 3423 3423 3423 3423 3423 3423 3423 3423 3423 3423 3423 3423 3423 3423 3423 3423 3423 3423 3423 3423 3458 3458 3458 3458 3458 3493 3493 3493 3493 3493 3458 3423 3423 3423 3423 3423 3423 3423 3423 3423 3423 3458 3423 3458 3493 3493 3493 3493 1097 1097 1097 1097 1066 1066 1060 1060 1060 1060 1056 1056 1056 1056 1056 1053 1053 1050 1050 1050 1047 1047 1044 1044 1044 1040 1040 1037 1037 1034 1034 1037 1037 1040 1040 1040 1044 1044 1044 1044 1044 1044 1047 1047 1047 1047 1047 1047 1047 1047 1047 1047 1047 1047 1047 1047 1047 1050 1050 1053 1053 1056 1056 1060 1060 1060 1063 1066 1066 1069 1073 1076 1079 1083 1086 1086 1090 1090 1093 1097 1104 1111 1114 1118 1122 1125 1125 1125 1129 1125 0 0 0 0 0 0 0 0 0 0 614 615 615 617 618 618 617 618 618 618 618 618 618 618 618 618 618 618 618 618 618 618 618 618 618 618 619 619 619 620 620 621 621 621 621 621 622 622 622 622 622 622 622 622 622 622 622 622 622 623 623 623 623 623 623 624 624 624 624 624 625 625 625 625 625 625 625 625 625 625 627 627 627 627 627 627 628 628 628 628 629 629 629 630 630 630 630 630 630 630 631 631 631 631 631 631 631 632 631 631 632 632 634 634 634 635 635 635 635 635 635 635 635 635 636 636 636 636 636 636 636 636 636 637 637 637 638 639 639 638 638 638 638 638 639 639 639 639 639 639 639 639 641 641 641 642 642 642 642 642 643 643 643 643 643 643 643 643 643 643 644 644 644 644 644 644 644 645 645 645 647 648 648 648 648 648 648 648 648 648 648 649 649 649 649 649 649 649 650 650 650 651 651 651 651 653 653 653 653 653 653 653 653 653 653 654 654 655 654 655 655 656 656 656 656 656 656 656 0 0 0 0 0 0 0 0 0 0 0 0 0 0 0 0 0 0 0 0 0 0 0 0 0 0 0 0 0 0 0 0 0 0 0 0 0 0 0 0 0 0 0 0 0 0 0 0 0 0 0 0 0 0 3718 3718 3718 3718 3718 3718 3718 3718 3679 3679 3679 3640 3640 3565 3565 3528 3528 3493 3493 3493 3493 3493 3493 3493 3458 3458 3458 3423 3423 3423 3390 3390 3423 3324 3324 3324 3293 3293 3293 3293 3293 3293 3293 3231 3231 3231 3201 3231 3231 3231 3172 3172 3172 3172 3172
    0 0 0 0 0 0 0 0 0 0 0 0 0 0 0 0 0 0 0 0 0 0 0 0 0 0 0 0 0 0 0 0 0 0 0 0 0 0 0 0 0 0 0 0 0 0 0 0 0 0 0 0 0 0 0 0 0 0 0 0 0 0 0 0 0 0 0 0 0 0 0 0 0 0 0 0 0 0 0 2033 2033 2033 2033 2033 2045 2045 2045 2045 2057 2057 2069 2069 2069 2069 2069 2082 2082 2082 2095 2095 2107 2120 2147 2147 2160 2160 2160 2160 2174 2174 2187 2187 2187 2187 2187 2187 2187 2187 2187 2187 2187 2174 2174 2174 2174 2174 2160 2160 0 0 0 0 0 0 3324 3357 3357 3390 3390 3390 3390 3390 3423 3423 3423 3423 3423 3458 3458 3423 3423 3423 3423 3423 3423 3423 3423 3423 3423 3423 3423 3423 3458 3423 3423 3423 3423 3423 3423 3423 3423 3423 3423 3423 3423 3423 3423 3423 3423 3423 3423 3423 3423 3423 3458 3458 3458 3458 3458 3493 3493 3493 3493 3493 3493 3458 3423 3423 3423 3423 3423 3423 3423 3423 3423 3423 3458 3423 3458 3493 3493 3493 3493 1097 1097 1097 1097 1069 1069 1063 1063 1060 1060 1060 1056 1056 1056 1056 1056 1056 1053 1053 1053 1050 1050 1047 1047 1044 1040 1040 1037 1037 1034 1034 1034 1037 1040 1044 1044 1044 1044 1044 1047 1047 1047 1047 1047 1050 1050 1050 1050 1050 1050 1047 1047 1047 1047 1047 1047 1047 1050 1053 1053 1053 1056 1056 1060 1060 1063 1063 1066 1066 1069 1073 1073 1079 1083 1086 1086 1090 1090 1093 1100 1107 1111 1114 1118 1122 1125 1125 1129 1129 1129 0 0 0 0 0 0 0 0 0 0 615 615 615 617 618 618 617 618 618 618 618 618 618 618 618 618 618 618 618 618 618 618 618 618 618 618 618 619 619 620 620 620 621 621 621 621 622 622 622 622 622 622 622 622 622 622 622 622 622 623 623 623 623 623 623 624 624 624 624 624 624 625 624 624 625 625 625 625 625 625 625 627 627 627 627 627 628 629 628 628 629 629 630 630 630 630 630 630 630 630 631 631 631 631 631 631 631 631 631 631 632 632 632 632 634 634 635 635 635 635 635 635 635 635 636 635 636 636 636 636 636 636 636 637 637 637 638 638 639 638 638 638 638 638 638 639 639 639 639 639 639 639 641 639 641 641 642 642 643 643 643 643 643 643 643 643 643 643 643 643 643 644 644 644 644 644 644 645 645 647 647 648 648 648 648 648 648 648 648 648 648 649 649 649 649 649 649 649 649 649 650 651 651 651 651 653 653 653 653 653 653 653 653 653 653 654 654 654 654 654 654 655 655 655 656 656 656 656 0 0 0 0 0 0 0 0 0 0 0 0 0 0 0 0 0 0 0 0 0 0 0 0 0 0 0 0 0 0 0 0 0 0 0 0 0 0 0 0 0 0 0 0 0 0 0 0 0 0 0 0 0 0 3679 3718 3718 3718 3679 3718 3679 3718 3679 3679 3679 3640 3602 3565 3565 3528 3528 3493 3493 3493 3458 3458 3493 3493 3458 3493 3458 3423 3423 3423 3390 3390 3357 3357 3357 3324 3324 3293 3293 3293 3293 3293 3293 3262 3231 3231 3201 3201 3201 3172 3172 3172 3143 3143 3143
    0 0 0 0 0 0 0 0 0 0 0 0 0 0 0 0 0 0 0 0 0 0 0 0 0 0 0 0 0 0 0 0 0 0 0 0 0 0 0 0 0 0 0 0 0 0 0 0 0 0 0 0 0 0 0 0 0 0 0 0 0 0 0 0 0 0 0 0 0 0 0 0 0 0 0 0 0 0 0 2033 2033 2033 2033 2045 2045 2045 2045 2045 2057 2057 2057 2069 2069 2069 2069 2082 2082 2095 2095 2107 2133 2147 2160 2160 2160 2160 2174 2174 2174 2187 2187 2187 2187 2187 2187 2187 2187 2187 2187 2187 2187 2174 2174 2174 2174 2174 2174 0 0 0 0 0 0 0 3357 3357 3390 3390 3390 3390 3423 3390 3423 3423 3423 3423 3423 3423 3423 3423 3423 3458 3423 3423 3423 3423 3423 3423 3423 3423 3423 3423 3423 3423 3423 3423 3423 3423 3423 3458 3423 3423 3423 3423 3423 3423 3458 3423 3423 3423 3423 3423 3423 3423 3423 3458 3458 3458 3458 3493 3493 3493 3493 3493 3458 3458 3423 3423 3423 3423 3423 3423 3390 3423 3423 3423 3423 3423 3458 3493 3493 3493 3493 3493 1097 1093 1093 1069 1069 1066 1063 1063 1063 1060 1060 1060 1056 1060 1056 1056 1056 1056 1056 1053 1050 1050 1050 1047 1040 1037 1037 1034 1031 1034 1034 1034 1037 1040 1044 1044 1044 1047 1047 1047 1047 1047 1050 1050 1050 1050 1050 1050 1047 1047 1047 1047 1047 1047 1047 1047 1050 1053 1053 1056 1056 1056 1060 1060 1060 1066 1066 1069 1069 1073 1073 1076 1079 1083 1086 1090 1093 1097 1104 1107 1111 1114 1118 1122 1125 1125 1129 1129 1129 0 0 0 0 0 0 0 0 0 0 617 617 617 618 618 619 617 618 618 618 618 618 618 618 618 618 618 618 618 618 618 618 618 618 618 618 619 619 619 619 620 620 621 621 621 621 621 621 622 622 622 622 622 622 622 622 622 622 622 623 623 623 623 623 623 624 624 624 624 624 624 624 624 624 624 624 624 625 625 625 625 625 625 625 627 627 628 628 628 628 629 629 630 630 630 630 630 630 630 630 631 631 631 631 631 631 631 631 631 631 631 631 632 632 632 634 634 635 635 635 635 635 635 635 636 635 636 636 636 636 636 636 636 636 636 637 638 638 639 638 638 638 638 638 638 639 638 639 639 639 639 639 639 639 641 641 642 642 642 643 643 643 643 643 643 643 643 643 643 643 643 644 644 644 644 644 644 644 645 645 645 647 647 647 648 648 648 648 648 648 648 648 648 648 649 649 649 649 649 649 650 650 651 651 651 651 651 651 653 651 653 653 653 653 653 653 653 654 653 654 654 654 655 655 655 656 656 656 0 0 0 0 0 0 0 0 0 0 0 0 0 0 0 0 0 0 0 0 0 0 0 0 0 0 0 0 0 0 0 0 0 0 0 0 0 0 0 0 0 0 0 0 0 0 0 0 0 0 0 0 0 0 3718 3718 3718 3718 3718 3718 3679 3679 3679 3679 3679 3640 3602 3565 3565 3528 3528 3493 3493 3493 3458 3458 3458 3458 3493 3493 3458 3423 3423 3423 3390 3390 3390 3390 3357 3357 3324 3324 3324 3293 3293 3293 3293 3293 3262 3231 3201 3201 3201 3172 3172 3143 3143 3143 3143
    0 0 0 0 0 0 0 0 0 0 0 0 0 0 0 0 0 0 0 0 0 0 0 0 0 0 0 0 0 0 0 0 0 0 0 0 0 0 0 0 0 0 0 0 0 0 0 0 0 0 0 0 0 0 0 0 0 0 0 0 0 0 0 0 0 0 0 0 0 0 0 0 0 0 0 0 0 0 0 2033 2033 2033 2033 2045 2045 2045 2045 2045 2045 2057 2057 2057 2069 2069 2069 2082 2082 2095 2095 2107 2133 2147 2160 2160 2160 2160 2174 2174 2174 2174 2187 2187 2187 2187 2187 2187 2187 2187 2187 2187 2187 2174 2174 2174 2174 2174 2174 0 0 0 0 0 0 0 3390 3390 3390 3390 3390 3390 3423 3390 3423 3423 3423 3423 3423 3423 3423 3423 3458 3458 3423 3423 3423 3423 3423 3423 3423 3423 3423 3423 3423 3423 3423 3423 3423 3423 3423 3458 3423 3423 3423 3423 3423 3458 3423 3423 3458 3458 3423 3423 3423 3423 3458 3458 3458 3458 3458 3458 3458 3458 3458 3458 3458 3458 3423 3423 3423 3423 3423 3423 3390 3423 3423 3423 3423 3423 3458 3493 3493 3493 3493 3493 1093 1093 1093 0 1073 1066 1063 1063 1063 1060 1060 1060 1060 1060 1060 1060 1060 1056 1056 1056 1053 1050 1050 1047 1040 1034 1034 1031 1031 1031 1034 1034 1037 1040 1040 1044 1044 1047 1047 1047 1047 1047 1050 1050 1050 1050 1050 1047 1047 1047 1047 1047 1047 1047 1047 1047 1050 1053 1053 1053 1056 1056 1060 1060 1063 1066 1069 1069 1069 1073 1073 1076 1079 1083 1086 1093 1097 1100 1104 1111 1114 1114 1118 1122 1125 1129 1129 1129 1129 0 0 0 0 0 0 0 0 618 618 617 618 618 618 618 618 617 618 618 618 618 618 618 618 618 618 618 618 618 618 618 618 618 618 618 618 618 618 619 619 620 620 620 621 620 620 620 621 621 621 621 621 622 622 622 622 622 622 622 623 623 623 623 623 623 623 623 623 623 623 623 623 623 624 624 625 624 625 625 625 625 625 625 625 627 627 628 629 628 628 629 630 629 629 630 630 630 630 630 630 631 631 631 631 631 631 631 631 631 631 631 632 632 632 632 634 634 634 634 634 635 635 635 635 635 635 636 636 636 636 636 636 636 636 636 637 637 638 638 638 638 638 638 638 638 638 639 639 639 639 639 639 639 639 641 641 642 642 642 642 642 642 643 643 643 643 642 643 643 643 643 643 644 644 644 644 644 645 645 647 647 647 647 647 648 648 648 647 648 648 648 648 648 648 649 649 649 649 649 649 650 650 651 651 651 651 653 653 653 653 653 653 653 653 653 653 653 654 654 654 654 654 655 655 655 655 656 656 0 0 0 0 0 0 0 0 0 0 0 0 0 0 0 0 0 0 0 0 0 0 0 0 0 0 0 0 0 0 0 0 0 0 0 0 0 0 0 0 0 0 0 0 0 0 0 0 0 0 0 0 0 0 3718 3718 3718 3718 3718 3718 3679 3679 3640 3679 3640 3640 3602 3565 3565 3528 3528 3528 3528 3458 3458 3458 3458 3458 3493 3458 3423 3423 3493 3423 3423 3390 3458 3423 3423 3357 3324 3293 3293 3293 3293 3293 3293 3293 3293 3262 3231 3231 3231 3172 3172 3143 3143 3143 3143
    0 0 0 0 0 0 0 0 0 0 0 0 0 0 0 0 0 0 0 0 0 0 0 0 0 0 0 0 0 0 0 0 0 0 0 0 0 0 0 0 0 0 0 0 0 0 0 0 0 0 0 0 0 0 0 0 0 0 0 0 0 0 0 0 0 0 0 0 0 0 0 0 0 0 0 0 0 0 0 2033 2033 2045 2033 2045 2045 2045 2045 2045 2045 2057 2057 2057 2069 2069 2069 2082 2082 2095 2107 2120 2133 2147 2160 2160 2160 2160 2174 2174 2174 2174 2187 2174 2174 2187 2187 2187 2187 2187 2187 2187 2187 2187 2174 2174 2174 2174 0 0 0 0 0 0 0 3423 3390 3390 3390 3390 3390 3390 3390 3390 3423 3423 3423 3423 3423 3423 3423 3423 3423 3458 3423 3423 3423 3423 3423 3423 3423 3423 3423 3423 3423 3458 3458 3458 3458 3423 3458 3458 3423 3423 3423 3423 3423 3458 3458 3423 3423 3423 3423 3423 3423 3423 3458 3493 3458 3458 3458 3493 3458 3458 3458 3458 3458 3458 3423 3423 3423 3423 3423 3423 3423 3423 3423 3423 3423 3458 3458 3493 3493 3493 3493 3493 3528 1093 1093 0 1073 1066 1063 1063 1063 1060 1060 1060 1060 1060 1060 1060 1060 1056 1056 1056 1053 1053 1050 1047 1031 1031 1031 1031 1031 1031 1034 1034 1037 1040 1040 1044 1044 1047 1047 1047 1047 1047 1047 1047 1047 1047 1047 1047 1047 1047 1047 1047 1047 1047 1047 1047 1050 1050 1053 1053 1056 1056 1060 1060 1063 1066 1069 1069 1069 1073 1073 1076 1079 1086 1090 1093 1097 1100 1107 1111 1114 1114 1118 1122 1125 1129 1129 1129 1133 1133 0 0 0 0 0 0 0 618 618 618 618 618 618 618 618 617 617 618 618 618 618 618 618 618 618 618 618 618 618 618 618 618 618 618 618 618 619 619 619 620 620 620 620 620 620 620 620 621 621 621 622 622 622 622 622 622 622 622 622 623 622 623 623 623 623 623 623 624 623 623 623 623 624 624 625 624 625 625 625 625 625 627 627 627 628 628 629 629 629 629 629 629 629 630 629 629 630 630 630 630 631 631 631 631 631 631 631 631 631 631 631 631 632 632 632 634 634 634 634 635 635 635 635 635 635 636 636 636 636 636 636 636 637 636 637 637 638 638 638 638 638 638 638 638 638 638 639 639 639 639 639 639 641 641 642 642 642 642 642 643 643 643 643 642 643 642 643 643 643 643 643 644 644 644 644 644 645 645 647 647 647 647 647 648 648 648 648 648 648 648 648 648 649 649 649 649 650 650 650 650 651 651 651 651 653 653 653 653 653 653 653 653 653 653 653 653 654 654 654 654 654 655 655 655 655 656 656 0 0 0 0 0 0 0 0 0 0 0 0 0 0 0 0 0 0 0 0 0 0 0 0 0 0 0 0 0 0 0 0 0 0 0 0 0 0 0 0 0 0 0 0 0 0 0 0 0 0 0 0 0 0 0 3718 3718 3718 3718 3718 3679 3679 3640 3679 3640 3640 3602 3565 3565 3565 3565 3528 3528 3493 3458 3458 3458 3458 3458 3458 3458 3458 3458 3458 3423 3423 3458 3423 3423 3390 3293 3293 3293 3293 3262 3293 3293 3293 3293 3262 3231 3231 3231 3231 3201 3172 3143 3143 3143
    0 0 0 0 0 0 0 0 0 0 0 0 0 0 0 0 0 0 0 0 0 0 0 0 0 0 0 0 0 0 0 0 0 0 0 0 0 0 0 0 0 0 0 0 0 0 0 0 0 0 0 0 0 0 0 0 0 0 0 0 0 0 0 0 0 0 0 0 0 0 0 0 0 0 0 0 0 0 0 2045 2045 2045 2033 2045 2045 2045 2045 2045 2045 2057 2057 2057 2069 2069 2069 2082 2082 2095 2107 2120 2133 2147 2160 2160 2174 2174 2174 2174 2174 2174 2174 2174 2174 2187 2187 2174 2187 2187 2187 2187 2187 2187 2187 2187 2174 2187 0 0 0 0 0 0 3423 3423 3390 3390 3390 3390 3423 3390 3390 3390 3423 3423 3423 3423 3423 3423 3423 3423 3423 3423 3423 3423 3423 3423 3423 3423 3423 3423 3423 3423 3423 3423 3423 3458 3458 3423 3458 3458 3423 3423 3423 3423 3423 3458 3423 3423 3423 3423 3458 3458 3423 3458 3458 3493 3458 3458 3458 3458 3458 3423 3423 3458 3458 3458 3423 3423 3423 3423 3423 3423 3423 3423 3423 3423 3423 3458 3458 3493 3493 3493 3493 3493 3528 3528 3528 1063 1063 1063 1063 1063 1060 1060 1060 1060 1060 1060 1060 1060 1060 1056 1056 1056 1056 1053 1053 1044 1025 1028 1028 1028 1028 1028 1031 1034 1034 1037 1040 1044 1044 1047 1047 1047 1047 1047 1047 1047 1047 1047 1047 1047 1047 1047 1047 1047 1047 1047 1047 1047 1050 1050 1053 1053 1053 1056 1056 1060 1063 1066 1066 1066 1069 1069 1073 1076 1079 1086 1093 1093 1100 1100 1107 1111 1111 1114 1118 1122 1125 1129 1129 1129 1133 1133 0 0 0 0 0 0 619 618 618 618 618 618 618 618 618 617 618 618 618 618 618 618 618 618 618 618 618 619 618 618 618 618 618 618 618 618 619 619 619 619 619 620 620 619 620 620 620 621 621 621 622 622 622 622 622 622 622 622 622 623 623 623 623 623 623 623 623 623 623 623 623 623 623 624 624 624 625 625 625 625 625 627 627 628 628 628 628 629 629 629 629 629 628 629 629 630 630 630 630 630 631 630 631 631 631 631 631 631 631 631 631 631 632 632 632 634 634 634 634 635 635 635 635 635 635 636 636 636 636 636 636 636 637 636 637 637 638 638 638 638 638 638 638 638 638 638 639 639 639 639 639 639 641 641 642 643 642 642 642 643 643 643 643 642 642 642 642 642 643 643 643 643 643 644 644 644 645 645 647 647 647 647 647 648 648 648 648 648 648 648 648 648 648 649 649 649 650 650 649 650 650 651 651 651 653 653 653 653 651 653 653 653 653 653 653 653 654 654 654 654 654 655 655 655 655 656 658 0 0 0 0 0 0 0 0 0 0 0 0 0 0 0 0 0 0 0 0 0 0 0 0 0 0 0 0 0 0 0 0 0 0 0 0 0 0 0 0 0 0 0 0 0 0 0 0 0 0 0 0 0 0 0 3718 3718 3718 3718 3718 3679 3679 3679 3679 3640 3602 3602 3565 3565 3565 3565 3528 3528 3493 3458 3493 3493 3458 3458 3458 3458 3458 3458 3458 3390 3390 3390 3390 3390 3390 3293 3293 3293 3293 3262 3262 3293 3293 3293 3262 3231 3231 3262 3262 3201 3172 3143 3143 3143
    0 0 0 0 0 0 0 0 0 0 0 0 0 0 0 0 0 0 0 0 0 0 0 0 0 0 0 0 0 0 0 0 0 0 0 0 0 0 0 0 0 0 0 0 0 0 0 0 0 0 0 0 0 0 0 0 0 0 0 0 0 0 0 0 0 0 0 0 0 0 0 0 0 0 0 0 0 0 0 2045 2045 2045 2045 2045 2045 2045 2045 2045 2045 2045 2045 2057 2057 2069 2069 2069 2082 2095 2107 2120 2133 2147 2160 2160 2160 2174 2174 2174 2174 2174 2174 2174 2174 2174 2174 2174 2187 2187 2187 2187 2187 2187 2187 2187 2187 2187 0 0 0 0 0 3423 3423 3423 3390 3390 3423 3390 3423 3390 3390 3390 3423 3423 3423 3423 3390 3423 3423 3423 3423 3423 3423 3423 3423 3423 3423 3423 3423 3423 3423 3423 3423 3423 3458 3458 3458 3458 3458 3458 3423 3423 3423 3423 3423 3458 3423 3423 3458 3423 3423 3423 3423 3423 3458 3493 3458 3458 3458 3458 3458 3423 3458 3458 3458 3458 3423 3423 3423 3423 3423 3390 3423 3423 3458 3458 3458 3458 3493 3493 3493 3493 3493 3493 3528 0 0 0 1063 0 1063 1060 1060 1060 1060 1060 1060 1060 1060 1060 1060 1056 1056 1056 1056 1053 1053 1044 1022 1022 1022 1022 1022 1025 1028 1031 1034 1034 1040 1044 1044 1044 1047 1047 1047 1047 1047 1047 1047 1047 1047 1047 1044 1044 1047 1047 1047 1047 1047 1047 1050 1053 1053 1053 1056 1056 1056 1060 1063 1063 1066 1066 1069 1069 1073 1073 1076 1083 1090 1093 1097 1100 1104 1107 1111 1114 1114 1118 1122 1125 1129 1129 1133 1133 0 0 0 0 0 0 619 618 618 618 618 618 618 618 618 617 617 618 617 617 618 618 618 618 618 618 618 618 618 618 618 618 618 618 618 618 619 619 619 619 619 620 620 620 619 620 620 620 621 621 621 622 622 622 622 622 622 622 623 623 623 623 623 623 623 623 622 623 622 623 623 623 623 624 624 624 625 625 625 625 625 627 627 627 628 628 628 628 628 628 628 628 628 628 629 629 629 630 630 630 630 630 630 630 631 630 631 631 631 631 631 631 632 632 632 634 634 634 634 635 635 635 635 635 635 635 636 636 636 636 636 636 636 636 637 637 638 638 637 637 638 638 638 638 638 638 638 638 639 639 639 639 641 641 642 643 643 642 642 643 642 642 643 642 643 643 643 643 643 643 643 644 643 644 644 644 644 645 645 645 647 647 647 648 648 648 648 648 648 648 648 648 648 649 649 649 649 650 649 650 651 651 651 651 653 653 653 653 651 651 653 653 653 653 653 653 653 653 654 654 654 654 655 655 655 655 0 0 0 0 0 0 0 0 0 0 0 0 0 0 0 0 0 0 0 0 0 0 0 0 0 0 0 0 0 0 0 0 0 0 0 0 0 0 0 0 0 0 0 0 0 0 0 0 0 0 0 0 0 0 0 3718 3718 3679 3718 3718 3718 3679 3679 3679 3679 3679 3640 3640 3602 3565 3565 3565 3528 3528 3493 3493 3493 3493 3458 3458 3458 3458 3458 3458 3390 3390 3390 3390 3390 3390 3357 3324 3293 3293 3293 3262 3293 3293 3293 3293 3262 3262 3262 3262 3262 3172 3143 3143 3143 3143
    0 0 0 0 0 0 0 0 0 0 0 0 0 0 0 0 0 0 0 0 0 0 0 0 0 0 0 0 0 0 0 0 0 0 0 0 0 0 0 0 0 0 0 0 0 0 0 0 0 0 0 0 0 0 0 0 0 0 0 0 0 0 0 0 0 0 0 0 0 0 0 0 0 0 0 0 0 0 0 0 2045 2045 2045 2045 2045 2045 2045 2045 2045 2045 2045 2045 2057 2057 2069 2069 2082 2095 2107 2120 2133 2147 2147 2160 2160 2160 2174 2174 2174 2174 2174 2174 2174 2174 2174 2174 2174 2187 2187 2187 2187 2187 2187 2187 2187 2187 0 0 0 3458 3458 3423 3423 3423 3390 3390 3423 3390 3423 3423 3390 3390 3423 3423 3423 3390 3390 3390 3423 3423 3423 3423 3423 3423 3423 3423 3423 3423 3423 3423 3423 3423 3423 3423 3423 3423 3423 3423 3423 3423 3423 3423 3423 3423 3423 3458 3458 3423 3423 3423 3423 3423 3423 3458 3458 3458 3458 3423 3458 3458 3458 3423 3423 3423 3423 3423 3390 3423 3423 3423 3423 3390 3423 3423 3458 3458 3458 3458 3493 3493 3493 3493 3493 3528 3528 3528 0 0 0 0 1060 1060 1060 1060 1060 1060 1056 1060 1060 1056 1056 1056 1056 1056 1053 1053 1053 1022 1022 1022 1022 1022 1019 1022 1022 1028 1031 1034 1037 1040 1040 1044 1044 1047 1047 1047 1047 1044 1047 1044 1044 1044 1044 1044 1044 1047 1047 1047 1047 1047 1050 1050 1053 1053 1053 1056 1056 1060 1060 1063 1066 1066 1069 1069 1073 1073 1076 1079 1086 1090 1097 1100 1104 1107 1111 1114 1114 1118 1122 1129 1133 1136 1136 1140 0 0 0 0 0 0 619 618 618 618 618 618 618 618 618 617 617 617 617 617 618 618 618 618 618 618 618 619 618 618 618 618 618 618 618 619 619 619 619 619 619 619 620 619 619 620 620 620 621 621 621 621 621 622 621 622 622 622 622 623 623 623 623 623 623 623 622 623 623 623 623 623 624 624 625 625 625 625 625 625 627 627 627 627 628 628 627 628 628 628 628 628 627 628 629 629 629 630 630 630 630 630 630 630 631 630 630 630 631 631 631 631 632 632 632 632 634 634 634 634 635 635 635 635 635 635 635 636 636 636 636 636 637 636 637 637 638 638 637 638 638 638 638 638 638 638 638 638 639 639 639 639 641 641 643 643 643 642 643 643 643 643 643 643 643 643 643 643 643 643 643 643 643 644 644 644 644 645 645 645 647 647 647 648 648 648 648 648 648 648 648 648 648 649 649 649 649 649 649 650 650 651 651 651 651 653 653 653 651 651 653 653 653 653 653 653 653 653 653 654 654 654 655 655 655 655 0 0 0 0 0 0 0 0 0 0 0 0 0 0 0 0 0 0 0 0 0 0 0 0 0 0 0 0 0 0 0 0 0 0 0 0 0 0 0 0 0 0 0 0 0 0 0 0 0 0 0 0 0 0 0 3718 3718 3718 3718 3718 3718 3679 3679 3679 3679 3640 3640 3640 3602 3602 3565 3565 3565 3528 3493 3493 3493 3493 3458 3458 3458 3458 3390 3390 3390 3390 3390 3390 3390 3390 3390 3324 3324 3293 3293 3262 3293 3293 3293 3293 3262 3262 3262 3262 3262 3201 3172 3172 3172 3172
    0 0 0 0 0 0 0 0 0 0 0 0 0 0 0 0 0 0 0 0 0 0 0 0 0 0 0 0 0 0 0 0 0 0 0 0 0 0 0 0 0 0 0 0 0 0 0 0 0 0 0 0 0 0 0 0 0 0 0 0 0 0 0 0 0 0 0 0 0 0 0 0 0 0 0 0 0 0 0 2045 2045 2045 2033 2045 2045 2045 2045 2045 2045 2045 2045 2045 2045 2057 2069 2069 2069 2095 2107 2120 2133 2147 2147 2160 2160 2160 2174 2174 2160 2174 2174 2174 2160 2174 2160 2174 2174 2174 2174 2187 2187 2187 2187 2187 3423 0 0 0 0 3458 3423 3423 3423 3423 3390 3390 3423 3423 3423 3423 3390 3390 3423 3423 3423 3423 3390 3390 3390 3390 3390 3423 3423 3423 3423 3423 3423 3423 3423 3423 3423 3423 3423 3423 3423 3423 3423 3423 3423 3423 3423 3423 3423 3458 3458 3458 3458 3423 3423 3390 3390 3390 3390 3390 3458 3423 3423 3423 3423 3423 3423 3423 3423 3423 3423 3423 3390 3390 3390 3390 3390 3390 3390 3423 3458 3458 3458 3458 3493 3493 3493 3493 3493 3528 3528 0 0 0 1073 0 1063 1063 1060 1060 1060 1060 1060 1060 1060 1056 1056 1056 1056 1053 1053 1050 1044 1022 1019 1019 1019 1019 1019 1022 1022 1025 1028 1031 1034 1040 1040 1044 1044 1044 1044 1044 1044 1044 1044 1044 1044 1044 1044 1044 1044 1044 1047 1047 1047 1047 1047 1050 1050 1053 1053 1053 1056 1056 1060 1063 1063 1066 1066 1069 1069 1073 1076 1079 1086 1090 1097 1100 1104 1107 1111 1114 1114 1118 1125 1129 1136 1136 1140 1140 0 0 0 0 0 619 619 618 618 618 618 618 618 618 618 617 617 617 617 617 618 618 618 618 618 618 618 618 618 618 618 618 618 618 618 619 619 619 619 619 619 619 620 619 620 620 620 620 620 621 621 621 621 621 621 622 622 622 622 622 623 623 623 624 624 624 623 623 623 623 623 623 624 624 625 625 625 625 625 625 625 627 627 627 627 627 627 627 627 627 628 628 628 628 629 629 629 629 630 630 630 630 630 630 631 630 630 630 631 631 631 631 632 632 632 634 634 634 634 635 635 635 635 635 635 635 635 635 636 636 636 636 636 636 636 637 638 638 638 638 638 638 638 638 638 638 638 638 639 639 639 639 639 639 642 642 643 642 642 643 642 643 643 643 642 643 643 643 643 643 643 643 643 644 644 644 644 644 644 645 645 647 647 647 648 648 648 648 648 648 648 648 649 649 649 649 649 649 649 650 650 651 651 651 651 651 653 651 651 651 653 653 653 653 653 653 653 654 654 654 654 655 655 655 655 655 0 0 0 0 0 0 0 0 0 0 0 0 0 0 0 0 0 0 0 0 0 0 0 0 0 0 0 0 0 0 0 0 0 0 0 0 0 0 0 0 0 0 0 0 0 0 0 0 0 0 0 0 0 0 0 3718 3718 3679 3679 3679 3718 3679 3679 3640 3679 3679 3679 3679 3640 3602 3602 3565 3565 3528 3528 3493 3493 3493 3458 3458 3458 3458 3458 3390 3423 3423 3423 3423 3390 3390 3390 3357 3324 3293 3293 3293 3293 3293 3293 3262 3262 3262 3262 3262 3262 3201 3201 3172 3172 3172
    0 0 0 0 0 0 0 0 0 0 0 0 0 0 0 0 0 0 0 0 0 0 0 0 0 0 0 0 0 0 0 0 0 0 0 0 0 0 0 0 0 0 0 0 0 0 0 0 0 0 0 0 0 0 0 0 0 0 0 0 0 0 0 0 0 0 0 0 0 0 0 0 0 0 0 0 0 0 0 0 2045 2045 2045 2045 2045 2045 2045 2045 2045 2045 2045 2045 2045 2057 2069 2069 2082 2095 2107 2120 2133 2147 2147 2160 2160 2160 2174 2174 2160 2174 2174 2174 2160 2174 2174 2174 2174 2174 2174 2187 2187 2187 2187 3390 3423 3423 3458 3423 3423 3423 3423 3423 3423 3423 3390 3423 3423 3423 3423 3423 3423 3423 3423 3423 3423 3423 3390 3390 3390 3390 3390 3390 3423 3423 3423 3423 3423 3423 3423 3423 3423 3390 3390 3423 3423 3423 3423 3423 3423 3423 3423 3423 3423 3423 3423 3458 3423 3423 3423 3423 3390 3423 3423 3423 3458 0 0 0 0 0 0 0 3423 3458 3458 3458 3423 3390 3390 3390 3390 3357 3390 3390 3423 3458 3458 3458 3493 3493 3493 3493 3493 3528 3528 0 0 0 0 1073 1069 1063 1063 1060 1060 1060 1056 1056 1056 1056 1056 1053 1053 1050 1050 1044 1022 1019 1019 1019 1019 1019 1022 1022 1022 1025 1025 1028 1031 1034 1037 1040 1040 1044 1044 1044 1044 1040 1044 1044 1044 1044 1044 1044 1044 1044 1047 1047 1047 1047 1047 1047 1050 1050 1050 1053 1056 1056 1060 1060 1063 1066 1066 1066 1069 1073 1076 1079 1086 1093 1097 1097 1104 1107 1111 1114 1114 1118 1125 1133 1136 1140 1140 1144 1144 0 0 0 618 618 618 617 617 617 617 618 617 617 618 617 617 617 617 617 617 617 617 618 617 618 618 618 618 618 618 618 618 618 618 619 619 619 619 619 619 619 620 619 620 620 620 620 620 621 621 621 621 621 621 621 622 622 622 622 622 622 623 623 624 623 623 623 623 623 623 624 623 624 625 625 625 625 625 625 625 627 627 627 627 627 627 627 627 627 627 627 627 628 629 629 629 629 630 630 630 630 630 630 631 630 630 631 631 631 631 631 632 632 632 632 634 634 634 635 635 635 635 635 635 635 635 635 636 636 636 636 636 636 636 637 637 638 638 638 638 638 638 638 638 638 638 638 639 639 639 639 639 639 642 642 642 641 641 642 642 642 643 642 643 643 643 643 643 643 643 643 643 643 644 644 644 644 644 645 645 647 647 647 647 648 648 648 648 648 648 648 648 649 649 649 649 649 649 650 650 651 651 651 651 651 651 651 651 651 651 651 651 653 653 653 653 654 654 654 654 655 655 656 655 655 0 0 0 0 0 0 0 0 0 0 0 0 0 0 0 0 0 0 0 0 0 0 0 0 0 0 0 0 0 0 0 0 0 0 0 0 0 0 0 0 0 0 0 0 0 0 0 0 0 0 0 0 0 3842 3842 3800 3718 3718 3718 3718 3718 3679 3679 3679 3679 3679 3679 3679 3640 3602 3602 3565 3565 3565 3528 3528 3528 3493 3458 3458 3458 3458 3458 3390 3423 3423 3423 3423 3390 3390 3357 3324 3293 3293 3293 3262 3262 3262 3262 3262 3262 3231 3262 3262 3201 3201 3201 3172 3172 3172
    0 0 0 0 0 0 0 0 0 0 0 0 0 0 0 0 0 0 0 0 0 0 0 0 0 0 0 0 0 0 0 0 0 0 0 0 0 0 0 0 0 0 0 0 0 0 0 0 0 0 0 0 0 0 0 0 0 0 0 0 0 0 0 0 0 0 0 0 0 0 0 0 0 0 0 0 0 0 0 2045 2033 2033 2033 2045 2045 2045 2045 2045 2045 2045 2045 2045 2057 2057 2069 2069 2082 2095 2107 2120 2133 2133 2147 2147 2160 2160 2160 2160 2160 2174 2174 2174 2160 2160 2160 2174 2174 2174 2174 2174 2174 3390 3390 3390 3423 3423 3423 3423 3423 3423 3423 3423 3390 3423 3390 3390 3423 3390 3423 3423 3423 3423 3423 3423 3423 3423 3390 3390 3390 3390 3390 3390 3423 3423 3423 3423 3423 3423 3423 3423 3423 3390 3390 3423 3423 3423 3423 3423 3390 3423 3423 3458 3458 3423 3423 3423 3458 3458 3528 3528 3423 3528 3493 3423 3423 3423 0 0 0 0 0 3458 0 3458 3458 3458 3423 3390 3390 3357 3357 3324 3357 3357 3357 3143 3493 3493 3493 3493 3493 3493 3493 0 0 0 0 0 1069 1069 1066 1063 1060 1060 1060 1060 1056 1056 1056 1056 1056 1050 1050 1047 1044 1028 1022 1019 1019 1016 1016 1019 1019 1022 1022 1022 1025 1025 1031 1034 1034 1037 1040 1040 1040 1040 1040 1040 1040 1040 1040 1040 1040 1044 1044 1044 1044 1047 1044 1047 1047 1047 1047 1050 1047 1053 1056 1056 1056 1060 1063 1063 1063 1066 1069 1073 1076 1079 1086 1090 1097 1100 1104 1107 1111 1114 1118 1122 1129 1136 1140 1140 1144 1144 1144 1144 0 0 618 618 618 617 617 617 617 617 617 617 617 617 617 617 617 617 617 617 617 617 617 617 618 618 618 618 618 618 618 619 618 619 619 619 619 619 619 619 619 619 619 620 620 620 620 621 621 621 621 621 621 621 622 622 622 622 622 622 622 623 623 623 622 623 623 623 624 624 624 624 624 625 625 625 625 625 625 627 627 627 627 627 627 627 628 627 628 628 628 628 628 629 629 629 630 630 630 630 630 630 631 631 631 631 631 631 631 631 632 631 632 632 634 634 634 635 635 635 635 635 635 635 635 635 636 636 636 636 636 636 636 636 636 637 638 638 638 638 638 638 638 639 638 639 639 639 639 639 639 639 641 642 641 641 641 642 642 642 642 642 642 643 643 643 643 643 643 643 643 643 643 644 644 644 644 645 645 645 647 647 647 648 648 648 648 648 648 648 649 649 649 649 649 649 649 650 650 651 651 651 653 651 651 651 651 651 651 651 651 651 653 653 653 654 654 654 654 655 655 655 654 654 0 0 0 0 0 0 0 0 0 0 0 0 0 0 0 0 0 0 0 0 0 0 0 0 0 0 0 0 0 0 0 0 0 0 0 0 0 0 0 0 0 0 0 0 0 0 0 0 0 0 0 0 3759 3842 3842 3800 3718 3718 3718 3718 3718 3679 3718 3679 3679 3679 3679 3679 3679 3640 3602 3565 3565 3528 3458 3528 3493 3493 3423 3458 3458 3423 3423 3423 3390 3423 3423 3390 3390 3390 3357 3324 3324 3293 3293 3262 3262 3262 3262 3231 3231 3231 3231 3231 3201 3201 3201 3201 3201 3172
    0 0 0 0 0 0 0 0 0 0 0 0 0 0 0 0 0 0 0 0 0 0 0 0 0 0 0 0 0 0 0 0 0 0 0 0 0 0 0 0 0 0 0 0 0 0 0 0 0 0 0 0 0 0 0 0 0 0 0 0 0 0 0 0 0 0 0 0 0 0 0 0 0 0 0 0 0 0 0 2045 2033 2033 2033 2033 2045 2045 2045 2045 2045 2045 2045 2045 2057 2057 2069 2069 2082 2095 2107 2120 2133 2133 2147 2147 2160 2160 2160 2160 2160 2174 2174 2174 2160 2160 2160 2160 2160 2174 2174 2174 3390 3390 3390 3390 3390 3423 3423 3423 3423 3423 3390 3423 3390 3390 3390 3390 3390 3390 3423 3423 3423 3423 3423 3423 3390 3423 3390 3390 3390 3390 3390 3390 3390 3390 3390 3390 3390 3423 3423 3423 3423 3390 3423 3423 3423 3423 3423 3423 3423 3390 3390 3423 3423 0 3143 0 0 0 3143 3143 3172 3172 3172 0 0 0 0 0 0 0 0 0 0 0 3390 3390 3390 3324 3231 3231 3143 3143 3143 3143 3143 0 0 0 0 0 0 0 0 0 0 0 0 0 1073 1073 1073 1066 1063 1060 1060 1060 1056 1056 1056 1053 1053 1053 1047 1044 1037 1022 1019 1019 1016 1016 1016 1016 1019 1019 1022 1022 1022 1025 1028 1031 1034 1034 1037 1037 1040 1040 1040 1037 1040 1037 1037 1040 1040 1040 1040 1044 1044 1044 1044 1044 1044 1047 1047 1047 1047 1047 1050 1056 1056 1056 1060 1063 1063 1066 1069 1073 1076 1079 1083 1090 1093 1097 1100 1104 1111 1114 1118 1122 1129 1136 1140 1140 1144 1144 1144 1144 0 0 618 618 618 617 617 617 617 617 617 617 617 617 617 617 617 617 617 617 617 617 617 617 618 618 618 618 618 618 618 619 619 619 619 619 619 619 619 619 619 619 619 620 620 620 620 621 621 621 621 621 621 621 622 622 622 622 622 622 622 622 623 622 622 623 623 624 624 624 624 625 625 625 625 625 625 625 625 627 627 627 627 627 627 627 627 627 628 628 628 628 628 629 628 629 629 629 630 630 630 630 630 630 630 631 630 631 631 631 631 631 632 632 632 634 634 635 635 635 635 635 635 636 635 635 636 636 636 636 636 636 636 637 637 637 637 638 638 638 638 638 639 639 638 638 639 639 639 638 639 639 641 642 642 641 642 642 642 642 642 642 642 642 643 643 643 643 643 643 643 643 643 643 643 643 644 644 645 647 647 647 647 648 648 648 648 648 648 649 649 649 649 649 649 649 649 650 650 651 651 651 651 651 651 651 651 651 651 651 651 651 653 653 653 654 654 654 654 654 655 654 654 0 0 0 0 0 0 0 0 0 0 0 0 0 0 0 0 0 0 0 0 0 0 0 0 0 0 0 0 0 0 0 0 0 0 0 0 0 0 0 0 0 0 0 0 0 0 0 0 0 0 0 0 0 3842 3842 3842 3718 3718 3718 3718 3718 3718 3718 3718 3718 3718 3679 3679 3679 3640 3602 3565 3565 3458 3458 3458 3458 3458 3423 3423 3423 3423 3423 3423 3390 3390 3390 3390 3390 3390 3390 3357 3324 3324 3293 3293 3262 3262 3262 3262 3201 3201 3201 3201 3201 3201 3201 3201 3201 3172 3172
    0 0 0 0 0 0 0 0 0 0 0 0 0 0 0 0 0 0 0 0 0 0 0 0 0 0 0 0 0 0 0 0 0 0 0 0 0 0 0 0 0 0 0 0 0 0 0 0 0 0 0 0 0 0 0 0 0 0 0 0 0 0 0 0 0 0 0 0 0 0 0 0 0 0 0 0 0 0 0 2045 2033 2033 2033 2033 2033 2045 2045 2045 2045 2045 2045 2045 2057 2057 2069 2069 2082 2095 2107 2120 2133 2133 2147 2147 2147 2160 2160 2160 2147 2160 2160 2160 2147 2147 2147 2147 2147 2451 3390 3390 3390 3390 3390 3390 3390 3390 3423 3423 3423 3423 3423 3423 3390 3390 3390 3390 3390 3390 3390 3423 3423 3423 3423 3423 3390 3390 3390 3390 3390 3390 3390 3390 3390 3390 3390 3390 3390 3390 3390 3390 3390 3390 3423 3423 3423 3423 3423 3423 3390 3390 3390 0 0 0 0 0 3143 3143 3143 3143 3172 3172 3172 3201 3201 3201 3172 3172 0 0 0 0 0 0 3231 3231 3201 3201 3172 3172 3143 3143 3172 3143 3143 0 0 0 0 0 0 0 0 0 0 0 0 0 1073 1073 1073 1066 1063 1060 1060 1056 1056 1053 1053 1050 1053 1053 1050 1047 1019 1019 1016 1013 1013 1013 1013 1016 1019 1019 1019 1022 1022 1022 1025 1028 1031 1034 1034 1037 1037 1037 1037 1034 1037 1037 1034 1037 1037 1037 1040 1040 1044 1044 1044 1044 1044 1044 1044 1047 1047 1047 1047 1053 1056 1056 1060 1063 1063 1066 1069 1069 1073 1076 1083 1086 1093 1097 1100 1104 1111 1114 1118 1125 1136 1140 1140 1144 1144 1144 1148 1148 1151 0 618 618 618 617 617 617 617 617 617 617 617 617 617 617 617 617 618 617 617 617 617 617 618 618 618 618 618 618 618 618 618 619 619 619 619 619 619 619 619 619 619 620 620 620 621 621 621 621 621 621 621 621 622 622 622 622 622 622 622 622 622 622 622 623 623 624 624 624 624 625 625 625 625 625 625 625 625 627 627 627 627 627 627 627 627 627 628 628 628 628 628 628 628 629 629 629 630 630 630 630 630 630 630 630 630 631 631 631 631 631 632 632 632 632 634 634 635 635 634 635 635 635 635 635 636 636 636 635 636 636 636 637 637 637 637 638 638 638 638 638 638 638 638 638 639 639 639 638 639 639 639 641 641 641 641 642 641 641 642 642 642 642 643 643 643 643 643 643 643 643 643 643 643 643 644 644 644 645 645 647 647 647 648 648 648 648 648 648 649 649 649 649 649 649 649 649 650 650 650 651 651 651 650 651 651 651 651 651 651 651 651 653 653 653 654 654 654 654 654 654 653 0 0 0 0 0 0 0 0 0 0 0 0 0 0 0 0 0 0 0 0 0 0 0 0 0 0 0 0 0 0 0 0 0 0 0 0 0 0 0 0 0 0 0 0 0 0 0 0 0 0 0 0 0 3842 3842 3842 3718 3718 3718 3718 3718 3718 3718 3679 3679 3679 3679 3679 3679 3640 3602 3602 3493 3458 3458 3458 3458 3458 3423 3390 3390 3390 3390 3390 3390 3390 3390 3423 3390 3390 3390 3357 3324 3324 3293 3293 3262 3262 3262 3231 3201 3201 3201 3201 3201 3201 3201 3201 3201 3172 3143
    0 0 0 0 0 0 0 0 0 0 0 0 0 0 0 0 0 0 0 0 0 0 0 0 0 0 0 0 0 0 0 0 0 0 0 0 0 0 0 0 0 0 0 0 0 0 0 0 0 0 0 0 0 0 0 0 0 0 0 0 0 0 0 0 0 0 0 0 0 0 0 0 0 0 0 0 0 0 0 2033 2033 2033 2033 2033 2033 2033 2033 2033 2045 2045 2045 2045 2045 2057 2057 2069 2082 2095 2107 2120 2133 2133 2147 2147 2147 2160 2147 2147 2147 2147 2160 2451 2451 2469 2469 2469 2451 0 0 3390 3390 3390 3390 3390 3390 3390 3390 3390 3390 3390 3390 3390 3390 3390 3390 3390 3390 3390 3390 3423 3423 3423 3423 3423 3423 3390 3390 3390 3357 3357 3357 3357 3357 3390 3390 3390 3390 3390 3390 3390 3423 3390 3423 3390 3423 3423 3423 3423 3390 3390 3390 0 0 0 0 3143 3143 3143 3143 3143 3143 3143 3172 3172 3172 3172 3172 0 0 0 0 0 0 0 3231 3231 3172 3172 3172 3172 3143 3143 3143 3143 3143 3143 3143 0 0 0 0 0 0 0 0 0 0 0 1073 1073 1073 1066 1063 1060 1060 1056 1053 1053 1053 1050 1050 1047 1047 1047 1010 1010 1010 1010 1010 1010 1013 1016 1019 1019 1019 1022 1022 1022 1025 1025 1028 1031 1034 1034 1034 1034 1034 1034 1037 1034 1034 1037 1037 1037 1040 1040 1040 1040 1044 1044 1044 1044 1044 1044 1044 1044 1047 1047 1053 1056 1060 1063 1063 1066 1069 1069 1073 1076 1079 1086 1090 1093 1100 1104 1107 1114 1118 1129 1136 1140 1144 1144 1144 1144 1148 1144 1144 0 0 0 618 617 617 617 617 617 617 617 617 615 617 617 617 617 618 617 617 617 617 617 617 617 617 618 618 618 618 618 618 618 618 618 619 619 619 618 619 619 619 620 620 620 620 621 621 621 621 621 621 622 622 622 622 622 622 622 622 622 622 622 622 623 623 624 624 624 624 624 624 624 625 625 625 625 625 625 625 627 627 627 627 627 627 628 628 628 628 628 628 628 628 629 629 629 630 630 630 630 630 630 630 630 630 631 631 631 631 631 632 632 632 632 634 634 634 635 634 635 635 635 635 635 636 636 635 635 636 636 636 637 637 637 637 638 638 638 638 638 638 638 638 638 638 639 639 638 638 639 639 641 641 639 641 641 641 641 641 641 642 642 643 642 642 643 642 643 643 643 643 643 643 643 644 644 644 645 645 645 645 647 648 648 648 648 648 648 648 649 649 649 649 649 649 649 650 650 650 650 651 651 650 651 651 651 651 651 651 651 651 653 653 654 654 654 654 655 655 654 654 0 0 0 0 0 0 0 0 0 0 0 0 0 0 0 0 0 0 0 0 0 0 0 0 0 0 0 0 0 0 0 0 0 0 0 0 0 0 0 0 0 0 0 0 0 0 0 0 0 0 0 0 0 0 3842 3718 3718 3718 3718 3718 3718 3718 3718 3679 3679 3679 3679 3679 3679 3640 3602 3565 3493 3458 3458 3458 3458 3458 3423 3423 3390 3390 3390 3390 3390 3390 3423 3423 3390 3390 3390 3357 3324 3324 3293 3293 3293 3293 3262 3262 3201 3201 3172 3201 3201 3201 3201 3201 3201 3172 3143
    0 0 0 0 0 0 0 0 0 0 0 0 0 0 0 0 0 0 0 0 0 0 0 0 0 0 0 0 0 0 0 0 0 0 0 0 0 0 0 0 0 0 0 0 0 0 0 0 0 0 0 0 0 0 0 0 0 0 0 0 0 0 0 0 0 0 0 0 0 0 0 0 0 0 0 0 0 0 0 2033 2033 2033 2021 2033 2033 2033 2033 2033 2045 2045 2045 2045 2057 2057 2057 2069 2082 2095 2107 2120 2133 2147 2147 2147 2147 2147 2147 2147 2133 2147 2451 2451 2451 2451 2469 2451 2451 2451 3293 3357 3357 3390 3390 3390 3390 3390 3390 3390 3390 3390 3390 3390 3390 3390 3390 3390 3390 3390 3390 3423 3423 3423 3423 3423 3390 3390 3390 3390 3357 3390 3357 3357 3357 3390 3390 3390 3390 3390 3390 3390 3390 3390 3390 3390 3423 3423 3423 3423 3423 3390 3390 0 0 0 3143 3143 3115 3115 3115 3115 3115 3115 3143 3143 3143 3172 3172 3172 3172 3172 0 3231 3231 3231 3231 3231 3172 3172 3172 3172 3143 3143 3143 3143 3143 3143 3143 3143 3143 0 0 0 0 0 0 0 0 1073 1073 1073 1073 1066 1063 1060 1056 1053 1053 1053 1050 1047 1050 1047 1047 1047 1007 1007 1007 1010 1010 1010 1010 1016 1016 1019 1019 1019 1022 1022 1025 1025 1028 1031 1034 1031 1034 1034 1034 1034 1034 1034 1034 1034 1037 1037 1037 1040 1040 1040 1044 1044 1044 1044 1044 1044 1044 1044 1047 1050 1053 1056 1056 1060 1063 1063 1066 1069 1073 1076 1079 1086 1090 1093 1100 1104 1107 1114 1118 1133 1136 1140 1144 1144 1144 1144 1148 1148 1151 0 0 618 618 618 617 617 618 617 617 617 617 615 617 617 617 617 617 617 617 617 617 617 617 617 617 618 618 618 618 618 618 618 618 618 618 618 618 618 619 619 619 620 620 620 620 621 621 621 621 621 621 622 622 622 622 622 622 622 622 622 622 622 623 623 623 624 624 624 624 624 624 624 625 625 625 625 625 625 625 627 627 627 627 627 627 628 628 628 628 628 628 628 628 629 629 630 630 630 630 630 630 630 630 630 630 631 631 631 631 631 631 632 632 632 634 634 634 635 635 635 635 635 635 635 636 635 635 635 635 635 636 636 636 637 637 637 637 638 638 638 638 638 638 638 639 639 639 638 639 639 639 639 639 639 639 641 639 641 641 641 641 641 641 641 642 642 642 642 643 643 643 643 643 643 644 644 644 644 645 645 645 647 648 648 648 648 648 648 648 649 649 649 649 649 649 649 650 650 650 650 651 651 651 651 651 651 651 651 651 651 651 653 653 654 654 654 654 655 655 654 654 0 0 0 0 0 0 0 0 0 0 0 0 0 0 0 0 0 0 0 0 0 0 0 0 0 0 0 0 0 0 0 0 0 0 0 0 0 0 0 0 0 0 0 0 0 0 0 0 0 0 0 0 0 0 0 3718 3718 3718 3718 3718 3718 3679 3679 3679 3679 3679 3679 3679 3640 3640 3565 3565 3528 3458 3458 3458 3458 3423 3423 3390 3390 3390 3390 3390 3390 3390 3423 3423 3390 3390 3390 3324 3324 3324 3324 3324 3293 3293 3262 3262 3201 3201 3201 3201 3201 3201 3201 3201 3201 3172 3172
    0 0 0 0 0 0 0 0 0 0 0 0 0 0 0 0 0 0 0 0 0 0 0 0 0 0 0 0 0 0 0 0 0 0 0 0 0 0 0 0 0 0 0 0 0 0 0 0 0 0 0 0 0 0 0 0 0 0 0 0 0 0 0 0 0 0 0 0 0 0 0 0 0 0 0 0 0 0 0 2033 2033 2033 2021 2033 2033 2033 2033 2033 2033 2045 2045 2045 2045 2057 2057 2069 2069 2082 2107 2120 2133 2133 2147 2147 2147 2147 2147 2523 2505 2487 2469 2469 2469 2451 2469 2451 2451 2451 3293 3293 3357 3357 3390 3357 3390 3390 3390 3390 3390 3390 3390 3390 3390 3390 3390 3390 3390 3390 3390 3390 3390 3390 3423 3390 3390 3390 3390 3390 3357 3390 3390 3390 3390 3390 3390 3390 3390 3390 3390 3423 3423 3423 3423 3390 3423 3423 3423 3423 3423 3390 3390 0 0 0 0 3143 3143 3143 3143 3087 3143 3087 3143 3172 3143 3172 3172 3201 3201 3231 0 3231 3231 3231 3172 3201 3172 3172 3172 3172 3172 3143 3143 3143 3143 3143 3143 3115 3115 3115 3143 0 0 0 0 0 0 1073 1073 1073 1069 1063 1060 1060 1056 1053 1050 1050 1050 1047 1047 1050 1050 998 998 1004 1007 1007 1007 1007 1010 1013 1010 1016 1019 1019 1019 1022 1022 1025 1025 1028 1031 1031 1031 1034 1034 1034 1034 1034 1034 1034 1037 1034 1037 1037 1040 1040 1040 1040 1044 1044 1044 1044 1044 1044 1047 1047 1053 1056 1056 1060 1060 1063 1066 1069 1073 1076 1079 1086 1093 1097 1100 1104 1107 1114 1118 1133 1136 1140 1140 1144 1144 1144 1144 1144 1148 0 0 0 0 618 617 617 617 617 617 617 617 615 617 617 617 617 618 617 617 617 617 617 617 617 617 617 617 618 618 618 618 618 618 618 618 618 618 618 619 619 619 620 620 620 620 621 621 621 621 621 622 622 622 622 622 622 622 622 622 622 622 622 622 623 623 624 624 624 623 624 624 624 624 625 625 625 625 625 625 627 627 627 627 627 627 628 628 628 628 628 628 628 628 629 629 630 630 630 630 630 630 630 630 630 630 631 631 631 631 631 632 632 632 632 632 634 634 634 635 635 635 635 635 635 636 635 635 635 635 635 636 636 636 637 636 637 637 637 638 638 638 638 638 638 638 639 639 638 639 639 639 639 639 639 639 641 639 639 639 639 641 641 641 641 642 642 642 642 643 643 643 643 643 643 644 644 644 644 644 645 645 647 648 648 648 648 648 648 648 648 649 649 649 649 649 650 650 650 650 650 651 651 650 651 650 651 651 651 651 651 651 653 654 654 654 655 655 655 655 655 654 0 0 0 0 0 0 0 0 0 0 0 0 0 0 0 0 0 0 0 0 0 0 0 0 0 0 0 0 0 0 0 0 0 0 0 0 0 0 0 0 0 0 0 0 0 0 0 0 0 0 0 0 0 0 0 3718 3759 3718 3718 3718 3718 3718 3679 3679 3679 3718 3679 3679 3640 3640 3493 3528 3423 3423 3423 3423 3423 3423 3423 3390 3390 3390 3357 3357 3390 3390 3423 3423 3390 3357 3357 3357 3324 3324 3324 3324 3324 3293 3293 3293 3231 3201 3201 3201 3201 3201 3201 3201 3172 3172 3172
    0 0 0 0 0 0 0 0 0 0 0 0 0 0 0 0 0 0 0 0 0 0 0 0 0 0 0 0 0 0 0 0 0 0 0 0 0 0 0 0 0 0 0 0 0 0 0 0 0 0 0 0 0 0 0 0 0 0 0 0 0 0 0 0 0 0 0 0 0 0 0 0 0 0 0 0 0 0 2033 2033 2033 2033 2021 2033 2033 2033 2033 2033 2033 2045 2045 2045 2045 2045 2057 2057 2069 2082 2095 2120 2133 2133 2147 2133 2147 2542 2542 2523 2505 2487 2469 2469 2469 2451 2469 2451 2451 2451 3293 3293 3324 3390 3390 3357 3357 3390 3390 3390 3390 3390 3390 3390 3390 3390 3390 3390 3390 3390 3390 3390 3390 3390 3390 3390 3390 3390 3390 3390 3357 3357 3357 3357 3357 3390 3390 3390 3390 3390 3390 3423 3423 3423 3423 3390 3390 3423 3423 3423 3423 3390 3390 0 0 0 3115 0 3143 3115 3115 3087 3087 3087 3143 3172 3172 3172 3201 3201 3201 3231 3231 3231 3231 3231 3172 3201 3201 3201 3172 3172 3172 3172 3172 3143 3143 3143 3143 3143 3143 3143 3143 3231 3201 0 0 0 0 1073 1073 1073 1069 1063 1060 1056 1053 1050 1050 1050 1050 1047 1047 1044 998 998 998 1001 1004 1004 1004 1007 1007 1010 1013 1013 1016 1019 1019 1022 1022 1025 1025 1025 1028 1031 1031 1034 1034 1034 1034 1034 1034 1034 1034 1034 1037 1037 1037 1037 1037 1040 1040 1044 1044 1044 1044 1044 1044 1047 1050 1053 1056 1060 1063 1063 1066 1069 1073 1076 1079 1086 1090 1097 1100 1100 1107 1114 1122 1133 1136 1140 1140 1144 1144 1144 1144 1144 1144 0 0 0 0 0 617 615 617 617 615 617 617 615 617 617 617 617 618 618 617 617 617 617 617 617 617 617 618 618 618 618 618 618 618 618 618 618 618 618 618 619 619 619 620 620 620 620 621 621 621 622 622 622 622 622 622 622 622 621 622 621 622 622 622 622 623 623 623 624 623 624 623 623 624 624 625 625 625 625 625 627 627 627 627 627 628 628 628 628 628 628 628 629 629 629 629 630 630 630 630 630 630 630 630 630 630 631 631 631 631 631 631 632 632 632 632 634 634 634 635 635 635 635 635 635 635 635 635 635 636 636 636 636 636 636 636 636 636 637 638 638 638 638 638 638 638 638 638 638 638 638 639 639 639 639 639 639 639 639 639 639 641 639 641 641 641 642 641 642 642 642 643 643 643 643 644 644 644 644 644 645 645 647 647 647 648 648 648 648 648 648 648 649 649 649 649 649 650 650 650 650 651 651 651 651 651 651 651 651 651 651 651 653 654 654 654 654 654 655 655 654 654 654 0 0 0 0 0 0 0 0 0 0 0 0 0 0 0 0 0 0 0 0 0 0 0 0 0 0 0 0 0 0 0 0 0 0 0 0 0 0 0 0 0 0 0 0 0 0 0 0 0 0 0 0 0 0 0 3718 3718 3718 3718 3718 3718 3679 3679 3679 3718 3679 3679 3640 3565 3493 3528 3423 3458 3423 3423 3423 3423 3423 3390 3390 3357 3357 3357 3357 3390 3390 3423 3390 3357 3357 3324 3324 3357 3324 3357 3293 3324 3262 3262 3231 3201 3201 3201 3201 3201 3201 3231 3201 3201 3172
    0 0 0 0 0 0 0 0 0 0 0 0 0 0 0 0 0 0 0 0 0 0 0 0 0 0 0 0 0 0 0 0 0 0 0 0 0 0 0 0 0 0 0 0 0 0 0 0 0 0 0 0 0 0 0 0 0 0 0 0 0 0 0 0 0 0 0 0 0 0 0 0 0 0 0 0 0 0 2033 2033 2033 2033 2021 2033 2033 2033 2033 2033 2033 2045 2045 2045 2045 2045 2057 2057 2069 2082 2095 2120 2133 2147 2147 2560 2542 2523 2523 2523 2505 2487 2469 2469 2469 2469 2469 2451 2451 3262 3262 3324 3357 3357 3390 3357 3357 3390 3390 3390 3390 3390 3390 3390 3390 3390 3390 3390 3390 3390 3390 3390 3390 3390 3390 3390 3390 3390 3390 3390 3357 3357 3357 3357 3390 3390 3390 3390 3390 3390 3390 3390 3423 3423 3423 3390 3390 3423 3423 3423 3423 3390 3390 0 3115 3115 3115 3115 3143 3143 3143 3115 3143 3143 3172 3201 3201 3201 3231 3231 3231 3231 3231 3262 3262 3262 3262 3262 3231 3201 3201 3201 3201 3201 3201 3172 3143 3172 3143 3143 3143 3143 3172 3201 3201 0 0 0 0 1076 1069 1069 1066 1060 1056 1053 1053 1050 1050 1050 1047 1047 1047 1044 995 998 998 1001 1001 1004 1004 1004 1007 1010 1010 1013 1013 1016 1019 1019 1022 1022 1025 1025 1031 1031 1031 1034 1034 1034 1034 1034 1034 1034 1034 1034 1034 1034 1034 1037 1037 1040 1040 1040 1040 1044 1044 1044 1047 1047 1050 1053 1056 1060 1063 1063 1066 1069 1073 1076 1079 1086 1090 1093 1100 1100 1104 1114 1122 1129 1133 1140 1140 1144 1144 1144 1144 1144 1144 0 0 0 0 0 0 615 617 617 615 617 617 615 617 617 617 618 618 618 617 617 617 617 617 617 617 617 617 618 618 618 618 618 618 618 618 618 618 618 618 619 619 619 619 620 620 620 621 621 621 622 622 622 622 622 622 622 622 622 622 622 622 622 622 622 623 623 623 623 623 623 623 623 624 624 625 625 625 627 627 627 627 627 627 628 628 628 628 628 628 628 628 629 629 629 630 630 630 630 630 630 630 630 630 630 630 631 631 631 631 631 631 632 632 632 632 634 634 635 635 635 635 635 635 635 635 636 635 635 636 636 636 636 636 636 635 636 636 636 637 638 638 638 638 638 638 638 639 638 638 638 639 639 639 641 639 641 639 639 639 639 641 639 641 641 641 642 641 642 642 643 643 643 643 643 644 644 644 644 644 645 645 647 647 648 648 648 648 648 648 648 648 649 648 649 649 649 650 649 649 650 650 651 651 651 651 651 651 651 651 651 651 653 654 654 654 654 654 655 655 654 654 654 0 0 0 0 0 0 0 0 0 0 0 0 0 0 0 0 0 0 0 0 0 0 0 0 0 0 0 0 0 0 0 0 0 0 0 0 0 0 0 0 0 0 0 0 0 0 0 0 0 0 0 0 0 0 0 3718 3718 3718 3718 3718 3679 3679 3679 3679 3679 3679 3640 3640 3602 3528 3493 3493 3458 3458 3458 3458 3458 3423 3423 3390 3357 3357 3324 3357 3390 3390 3390 3357 3357 3324 3324 3324 3390 3324 3390 3357 3357 3324 3293 3262 3231 3231 3231 3231 3231 3231 3231 3201 3201 3172
    0 0 0 0 0 0 0 0 0 0 0 0 0 0 0 0 0 0 0 0 0 0 0 0 0 0 0 0 0 0 0 0 0 0 0 0 0 0 0 0 0 0 0 0 0 0 0 0 0 0 0 0 0 0 0 0 0 0 0 0 0 0 0 0 0 0 0 0 0 0 0 0 0 0 0 0 0 0 2033 2033 2033 2033 2033 2033 2033 2033 2033 2033 2033 2033 2045 2045 2045 2045 2045 2057 2069 2082 2082 2107 2133 2560 2560 2542 2542 2523 2505 2505 2487 2469 2469 2469 2469 2469 2469 2451 2451 3293 3293 3324 3357 3357 3390 3357 3357 3390 3390 3390 3390 3390 3390 3390 3390 3390 3390 3357 3357 3357 3390 3390 3390 3390 3390 3390 3390 3390 3390 3390 3390 3357 3357 3357 3357 3390 3390 3390 3390 3390 3390 3390 3423 3423 3423 3390 3390 3390 3423 3423 3390 3390 0 3087 3087 3115 3115 3143 3143 3143 3143 3143 3172 3201 3201 3201 3201 3201 3231 3231 3262 3231 3262 3262 3293 3293 3293 3262 3231 3231 3201 3201 3201 3201 3201 3201 3172 3201 3201 3201 3201 3201 3231 3231 3231 3231 3231 0 0 1063 1063 1066 1060 1056 1053 1056 1050 1047 1047 1047 1047 1047 1047 998 998 998 998 1001 1001 1001 1004 1004 1004 1007 1010 1010 1013 1013 1016 1019 1019 1022 1022 1025 1031 1031 1031 1031 1034 1034 1034 1034 1031 1034 1034 1034 1034 1034 1034 1034 1037 1037 1040 1040 1040 1044 1044 1044 1047 1047 1050 1053 1056 1060 1060 1063 1066 1069 1069 1076 1079 1086 1090 1093 1097 1100 1104 1114 1125 1129 1133 1136 1140 1144 1144 1144 1144 1144 1144 0 0 0 0 619 617 617 617 617 617 617 618 615 617 617 617 618 618 618 617 617 617 617 617 617 617 617 617 618 618 618 618 618 618 618 618 618 618 618 619 619 620 620 620 620 621 621 621 621 621 621 622 622 622 622 622 622 622 621 622 622 622 622 622 623 623 623 623 623 623 624 624 623 624 625 625 625 627 627 627 627 627 627 627 627 627 627 628 628 628 628 628 629 629 630 630 630 630 630 630 630 630 630 630 630 630 631 631 631 631 632 631 632 632 632 632 634 634 635 635 635 635 635 635 635 635 635 635 635 636 636 636 636 636 636 635 636 636 636 637 637 638 638 638 638 638 638 639 638 638 638 639 639 639 641 639 641 639 639 639 639 641 639 641 641 642 642 642 642 642 643 643 643 644 643 644 644 644 644 644 645 645 647 647 648 648 648 648 648 648 648 649 649 649 648 649 649 650 650 650 650 650 651 651 651 651 651 651 651 651 651 653 653 654 654 654 655 654 655 655 655 655 655 655 0 0 0 0 0 0 0 0 0 0 0 0 0 0 0 0 0 0 0 0 0 0 0 0 0 0 0 0 0 0 0 0 0 0 0 0 0 0 0 0 0 0 0 0 0 0 0 0 0 0 0 0 0 0 3679 3679 3679 3679 3679 3679 3679 3679 3679 3679 3679 3640 3640 3640 3528 3528 3528 3528 3528 3528 3528 3528 3423 3390 3390 3357 3324 3357 3357 3390 3390 3357 3324 3324 3324 3324 3324 3390 3324 3357 3357 3357 3324 3293 3262 3231 3231 3231 3231 3231 3231 3231 3231 3201 3172
    0 0 0 0 0 0 0 0 0 0 0 0 0 0 0 0 0 0 0 0 0 0 0 0 0 0 0 0 0 0 0 0 0 0 0 0 0 0 0 0 0 0 0 0 0 0 0 0 0 0 0 0 0 0 0 0 0 0 0 0 0 0 0 0 0 0 0 0 0 0 0 0 0 0 0 0 0 0 2021 2033 2033 2033 2033 2033 2033 2033 2033 2033 2033 2033 2033 2045 2045 2045 2045 2057 2057 2069 2082 2095 2560 2560 2523 2523 2523 2505 2505 2505 2487 2469 2469 2469 2469 2469 2469 2469 2469 3324 3324 3357 3357 3357 3390 3390 3390 3390 3390 3390 3390 3390 3390 3390 3390 3390 3390 3357 3357 3357 3390 3357 3390 3390 3390 3390 3390 3390 3390 3390 3357 3357 3357 3357 3357 3390 3390 3390 3390 3390 3390 3390 3390 3390 3390 3390 3390 3390 3390 3423 3390 3390 0 3087 3087 3115 3143 3143 3172 3143 3172 3172 3201 3231 3231 3231 3231 3231 3231 3231 3262 3262 3262 3293 3293 3293 3293 3262 3231 3231 3201 3201 3201 3201 3201 3231 3201 3231 3231 3231 3231 3231 3231 3231 3262 3231 3231 0 0 1060 1063 1063 1060 1053 1050 1050 1047 1047 1047 1047 1047 1044 1044 1001 1001 1001 1001 998 1001 1001 1001 1004 1004 1007 1007 1010 1010 1013 1013 1016 1019 1019 1022 1022 1025 1031 1031 1031 1031 1034 1031 1034 1031 1031 1034 1034 1034 1034 1034 1034 1034 1037 1037 1040 1040 1044 1044 1044 1044 1047 1050 1053 1056 1060 1060 1063 1066 1066 1069 1073 1079 1086 1090 1093 1097 1100 1104 1114 1122 1129 1133 1136 1140 1140 1144 1144 1144 1144 0 0 0 0 0 0 617 615 617 617 615 617 617 615 617 617 617 617 618 617 617 617 617 617 617 617 617 617 617 617 617 617 617 618 618 618 618 618 618 618 619 619 620 620 620 620 620 621 621 621 621 621 621 622 621 622 622 622 622 622 622 622 622 622 622 622 623 623 623 623 623 623 623 623 624 624 625 625 625 625 627 627 627 627 627 627 627 627 627 627 628 628 628 629 629 630 630 630 630 630 630 630 630 630 630 630 630 631 631 631 631 632 631 632 632 632 632 634 634 635 635 635 635 635 635 635 635 635 635 635 636 636 636 636 636 636 635 635 635 635 636 637 637 638 638 638 638 638 638 638 638 638 639 639 641 641 641 641 639 639 639 639 639 639 641 639 642 642 642 642 643 643 643 643 644 644 644 644 644 644 644 644 645 647 647 647 648 648 648 648 648 648 648 648 648 648 649 649 650 650 650 650 650 650 650 651 650 651 651 651 651 651 651 653 654 654 654 654 654 655 655 655 655 655 655 0 0 0 0 0 0 0 0 0 0 0 0 0 0 0 0 0 0 0 0 0 0 0 0 0 0 0 0 0 0 0 0 0 0 0 0 0 0 0 0 0 0 0 0 0 0 0 0 0 0 0 0 0 0 3679 3679 3679 3679 3679 3640 3640 3640 3679 3679 3679 3640 3640 3640 3528 3565 3528 3528 3528 3528 3528 3528 3528 3423 3390 3390 3357 3390 3390 3390 3390 3390 3324 3324 3324 3390 3293 3390 3293 3390 3357 3324 3324 3293 3293 3231 3262 3262 3262 3231 3231 3231 3201 3201 3172</data></dframe>
</opencv_storage>
