<?xml version="1.0"?>
<opencv_storage>
<dframe type_id="opencv-matrix">
  <rows>33</rows>
  <cols>640</cols>
  <dt>w</dt>
  <data>
    0 0 0 0 0 0 0 0 0 0 0 0 0 0 0 0 0 0 0 0 0 0 0 0 0 0 0 0 0 0 0 0 0 0 0 0 0 0 0 0 0 0 0 0 0 0 0 0 0 0 0 0 0 0 0 0 0 0 0 0 0 0 0 0 0 0 0 0 0 0 0 0 0 0 0 0 0 0 0 0 0 0 0 0 0 0 0 0 0 0 0 0 0 0 0 0 0 0 0 0 0 0 0 0 0 0 0 0 0 0 0 0 0 0 3493 3528 3528 3528 3528 3528 3528 3528 3528 3528 3528 3528 3528 3528 3528 3565 3565 3528 3528 3528 3528 3565 3528 3528 3493 3493 3493 3493 3493 3493 3493 3458 3458 3458 3493 3493 3493 3493 3493 3493 3528 3528 3493 3528 3493 3528 3528 3528 3493 3528 3493 3528 3528 3493 3528 3493 3493 3493 3493 3493 3458 3493 3493 3528 3528 3528 3528 3528 3528 3565 3565 3528 3528 3528 3528 3528 3528 3528 3493 3528 3528 3528 3528 3528 3528 3528 3528 3528 3528 3528 3528 3528 3528 3528 3528 3528 3528 3528 3528 3565 3565 3565 3565 3565 3565 3565 3565 3565 3565 3565 3565 3565 3565 3565 3565 3528 3528 3528 3528 3528 3493 3528 3528 3528 3528 3565 3565 3565 3602 3602 3602 3640 3640 3602 3640 3640 3602 3602 3602 3602 3565 3602 3602 3602 3602 3602 3602 3602 3602 3602 3602 3602 3565 3565 3565 3565 3602 3565 3602 3602 3602 3602 3602 3602 3602 3602 3602 3602 3602 3602 3602 3565 3528 3565 3565 3565 3565 3565 3602 3602 3640 3602 3640 3640 3640 3640 3640 3640 3602 3602 3602 3602 3602 3602 3602 3640 3640 3640 3640 3640 3640 3640 3640 3640 3640 3640 3602 3602 3602 3602 3602 3640 3640 3640 3640 3602 3640 3602 3602 3602 3602 3602 3602 3602 3602 3602 3602 3602 3602 3602 3602 3602 3602 3602 3602 3602 3602 3602 3602 3602 3602 3602 3640 3640 3640 3640 3602 3640 3602 3602 3602 3602 3602 3602 3602 3602 3602 3602 3602 3602 3602 3602 3602 3602 3602 3602 3602 3602 3602 3602 3602 3602 3602 3602 3602 3602 3602 3602 3602 3602 3602 3602 3602 3602 3602 3602 3602 3602 3602 3602 3602 3602 3602 3602 3602 3602 3602 3565 3565 3565 3565 3565 3565 3565 3565 3528 3528 3528 3528 3528 3528 3565 3565 3565 3565 3565 3565 3565 3565 3565 3565 3565 3565 3565 3565 3565 3565 3565 3565 3565 3565 3565 3565 3565 3565 3565 3528 3565 3565 3565 3565 3565 3565 3565 3565 3565 3565 3565 3565 3528 3528 3565 3565 3565 3565 3565 3565 3565 3565 3565 3565 3565 3565 3565 3565 3565 3565 3565 3602 3565 3565 3565 3565 3565 3565 3565 3565 3565 3565 3565 3565 3565 3565 3565 3565 3565 3565 3565 3528 3528 3528 3528 3528 3528 3528 3528 3565 3528 3528 3528 3528 3528 3528 3528 3528 3528 3528 3528 3528 3528 3565 3565 3565 3565 3528 3528 3565 3565 3565 3565 3565 3565 3602 3602 3602 3565 3565 3565 3565 3565 3528 3528 3528 3565 3565 3565 3565 3565 3565 3565 3565 3565 3565 3528 3565 3565 3565 3565 3565 3565 3565 3565 3565 3565 3565 3565 3565 3565 3565 3528 3528 3528 3528 3528 3528 3528 3528 3565 3528 3565 3565 3528 3528 3528 3528 3528 3528 3565 3565 3565 3528 3493 3493 3493 3493 3493 3493 3493 3493 3493 3458 3458 3423 3423 3390 3390 3390 3390 3390 3390 3390 3357 3390 3390 3357 3357 3357 3357 3357 3324 3324 3293 3262 3262 3262 3262 3231 3231 3231 3231 3201 3201 3172 3172 3143 3143
    0 0 0 0 0 0 0 0 0 0 0 0 0 0 0 0 0 0 0 0 0 0 0 0 0 0 0 0 0 0 0 0 0 0 0 0 0 0 0 0 0 0 0 0 0 0 0 0 0 0 0 0 0 0 0 0 0 0 0 0 0 0 0 0 0 0 0 0 0 0 0 0 0 0 0 0 0 0 0 0 0 0 0 0 0 0 0 0 0 0 0 0 0 0 0 0 0 0 0 0 0 0 0 0 0 0 0 0 0 0 0 0 0 0 3493 3528 3528 3528 3528 3528 3528 3528 3528 3528 3528 3565 3528 3528 3565 3565 3565 3565 3528 3528 3565 3565 3528 3528 3493 3493 3493 3493 3493 3493 3493 3493 3458 3458 3493 3493 3493 3493 3528 3528 3528 3528 3493 3528 3528 3528 3528 3528 3493 3528 3528 3528 3528 3528 3528 3528 3528 3493 3528 3493 3493 3493 3493 3528 3528 3528 3528 3565 3565 3565 3565 3565 3528 3528 3528 3528 3528 3528 3528 3528 3528 3528 3528 3528 3528 3528 3528 3528 3528 3528 3528 3528 3528 3528 3528 3565 3528 3565 3528 3565 3565 3565 3565 3565 3565 3565 3565 3565 3565 3565 3565 3602 3602 3602 3602 3528 3528 3528 3528 3528 3528 3528 3528 3528 3565 3565 3565 3565 3602 3602 3602 3640 3640 3640 3640 3640 3640 3640 3602 3602 3602 3602 3640 3602 3640 3640 3602 3602 3602 3602 3602 3602 3602 3565 3602 3602 3602 3565 3602 3602 3602 3602 3602 3602 3640 3640 3640 3640 3640 3640 3640 3640 3602 3602 3640 3640 3640 3640 3640 3640 3640 3640 3640 3640 3640 3640 3602 3640 3602 3602 3602 3602 3602 3640 3640 3679 3679 3679 3640 3640 3640 3640 3640 3640 3640 3640 3602 3640 3602 3640 3640 3640 3640 3640 3640 3640 3640 3640 3640 3640 3602 3602 3602 3640 3602 3602 3602 3602 3602 3602 3602 3602 3602 3602 3602 3602 3602 3602 3602 3602 3602 3602 3640 3640 3640 3640 3640 3640 3602 3640 3602 3602 3602 3602 3602 3602 3602 3602 3602 3602 3602 3602 3602 3640 3602 3602 3640 3640 3602 3602 3602 3602 3602 3602 3602 3602 3602 3602 3602 3602 3602 3602 3602 3602 3602 3602 3602 3602 3602 3602 3602 3602 3602 3602 3602 3602 3640 3602 3602 3602 3602 3565 3565 3565 3565 3565 3565 3565 3565 3528 3565 3565 3565 3565 3565 3565 3565 3565 3565 3565 3565 3565 3565 3565 3565 3565 3565 3565 3565 3565 3565 3565 3565 3565 3565 3565 3565 3565 3565 3565 3565 3565 3565 3565 3565 3565 3565 3565 3565 3565 3565 3565 3565 3565 3565 3565 3565 3565 3602 3602 3602 3602 3602 3602 3602 3602 3602 3565 3602 3565 3565 3565 3565 3565 3565 3565 3565 3565 3565 3565 3565 3565 3565 3565 3565 3565 3565 3565 3528 3528 3528 3565 3565 3565 3565 3565 3565 3565 3565 3565 3528 3528 3528 3528 3565 3528 3565 3565 3565 3565 3565 3565 3565 3565 3565 3565 3565 3565 3565 3565 3565 3602 3602 3640 3640 3640 3602 3602 3565 3565 3565 3565 3565 3565 3565 3565 3565 3565 3565 3565 3565 3565 3565 3565 3565 3565 3565 3565 3565 3565 3565 3602 3602 3565 3565 3565 3602 3602 3565 3528 3565 3528 3528 3528 3528 3528 3565 3565 3565 3565 3565 3565 3565 3565 3565 3565 3565 3565 3565 3565 3528 3528 3493 3528 3528 3493 3493 3493 3493 3493 3458 3458 3423 3423 3423 3390 3390 3390 3390 3390 3390 3357 3357 3357 3357 3357 3357 3357 3324 3324 3293 3262 3262 3262 3262 3262 3231 3231 3231 3231 3201 3172 3172 3172 3172 3143
    0 0 0 0 0 0 0 0 0 0 0 0 0 0 0 0 0 0 0 0 0 0 0 0 0 0 0 0 0 0 0 0 0 0 0 0 0 0 0 0 0 0 0 0 0 0 0 0 0 0 0 0 0 0 0 0 0 0 0 0 0 0 0 0 0 0 0 0 0 0 0 0 0 0 0 0 0 0 0 0 0 0 0 0 0 0 0 0 0 0 0 0 0 0 0 0 0 0 0 0 0 0 0 0 0 0 0 0 2335 2367 2384 2400 0 0 0 3528 3528 3528 3493 3528 3528 3528 3528 3528 3528 3565 3565 3565 3565 3565 3565 3565 3565 3565 3565 3565 3565 3528 3528 3528 3528 3493 3493 3493 3493 3528 3528 3493 3493 3493 3493 3493 3528 3528 3528 3528 3528 3528 3528 3528 3528 3528 3528 3528 3528 3528 3528 3528 3528 3528 3528 3528 3528 3528 3493 3493 3493 3528 3528 3528 3565 3565 3565 3565 3565 3565 3565 3565 3565 3528 3528 3528 3528 3528 3565 3565 3565 3528 3565 3565 3565 3528 3528 3528 3528 3565 3528 3528 3528 3565 3528 3528 3528 3565 3565 3565 3565 3565 3602 3602 3602 3565 3565 3565 3602 3602 3602 3602 3602 3565 3528 3528 3528 3528 3528 3528 3528 3528 3565 3565 3565 3565 3602 3602 3640 3640 3640 3640 3640 3640 3640 3640 3602 3602 3602 3602 3640 3602 3640 3640 3640 3640 3640 3640 3640 3640 3640 3602 3602 3602 3602 3602 3602 3602 3602 3640 3640 3640 3640 3640 3640 3640 3640 3640 3640 3640 3640 3640 3640 3640 3640 3640 3679 3640 3640 3640 3640 3640 3640 3640 3640 3640 3640 3640 3640 3640 3640 3679 3679 3679 3679 3679 3679 3679 3679 3679 3679 3679 3679 3679 3640 3640 3640 3640 3640 3602 3602 3640 3640 3602 3640 3640 3602 3640 3640 3640 3640 3640 3640 3640 3640 3640 3602 3602 3602 3602 3602 3602 3602 3602 3602 3602 3602 3602 3602 3602 3640 3640 3602 3640 3640 3640 3640 3640 3602 3602 3602 3602 3602 3602 3602 3602 3602 3602 3602 3602 3640 3640 3640 3640 3640 3640 3640 3640 3602 3602 3602 3602 3602 3602 3602 3602 3602 3602 3602 3602 3602 3602 3602 3602 3602 3602 3602 3602 3602 3602 3602 3602 3602 3602 3640 3602 3602 3602 3602 3602 3602 3565 3565 3565 3565 3565 3565 3565 3565 3565 3565 3565 3565 3565 3565 3565 3602 3565 3565 3565 3565 3565 3565 3565 3565 3565 3565 3565 3565 3565 3565 3565 3565 3565 3565 3565 3565 3565 3565 3565 3565 3565 3565 3565 3565 3565 3565 3565 3565 3565 3565 3565 3565 3602 3602 3602 3602 3602 3602 3602 3602 3602 3602 3602 3602 3565 3602 3565 3565 3565 3565 3565 3565 3565 3602 3602 3565 3602 3602 3602 3602 3602 3565 3565 3602 3565 3528 3528 3528 3565 3565 3565 3565 3565 3565 3565 3565 3565 3565 3565 3565 3565 3565 3565 3565 3565 3565 3565 3565 3565 3602 3565 3565 3565 3565 3565 3565 3602 3565 3602 3602 3640 3640 3640 3602 3602 3565 3565 3565 3528 3528 3528 3565 3565 3565 3565 3565 3565 3565 3565 3565 3565 3565 3565 3602 3602 3602 3565 3565 3602 3602 3602 3565 3565 3602 3602 3640 3565 3565 3602 3602 3602 3528 3565 3565 3602 3602 3602 3565 3565 3565 3565 3565 3565 3565 3565 3565 3565 3528 3528 3528 3528 3528 3493 3493 3493 3458 3458 3458 3423 3390 3390 3390 3390 3390 3390 3390 3390 3390 3357 3357 3357 3357 3357 3357 3357 3324 3324 3293 3262 3262 3262 3231 3231 3231 3231 3231 3201 3201 3172 3172 3172 3172 3143
    0 0 0 0 0 0 0 0 0 0 0 0 0 0 0 0 0 0 0 0 0 0 0 0 0 0 0 0 0 0 0 0 0 0 0 0 0 0 0 0 0 0 0 0 0 0 0 0 0 0 0 0 0 0 0 0 0 0 0 0 0 0 0 0 0 0 0 0 0 0 0 0 0 0 0 0 0 0 0 0 0 0 0 0 0 0 0 0 0 0 0 0 0 0 0 0 0 0 0 0 0 0 0 0 0 0 0 2335 2335 2351 2351 2351 0 0 0 0 3528 3528 3528 3528 3528 3565 3565 3565 3565 3565 3565 3565 3565 3565 3565 3565 3602 3602 3602 3565 3565 3528 3528 3528 3528 3528 3528 3528 3528 3528 3528 3528 3493 3493 3493 3493 3493 3528 3528 3528 3528 3528 3528 3528 3528 3528 3528 3528 3528 3528 3565 3565 3565 3528 3528 3528 3528 3528 3493 3493 3493 3528 3528 3528 3528 3565 3565 3565 3565 3565 3565 3565 3565 3565 3565 3565 3565 3565 3565 3565 3565 3565 3565 3565 3565 3565 3565 3528 3528 3528 3565 3565 3528 3565 3565 3565 3528 3602 3565 3602 3602 3602 3602 3602 3602 3565 3602 3602 3602 3602 3602 3602 3602 3565 3565 3528 3565 3528 3528 3528 3565 3565 3565 3602 3602 3602 3602 3640 3640 3640 3640 3640 3640 3640 3602 3640 3640 3640 3602 3602 3640 3602 3640 3640 3640 3640 3640 3640 3640 3640 3640 3640 3640 3640 3640 3640 3640 3640 3640 3640 3640 3640 3640 3640 3640 3640 3640 3640 3640 3640 3640 3640 3640 3640 3679 3640 3679 3679 3679 3640 3640 3640 3640 3640 3640 3640 3640 3640 3640 3640 3640 3679 3679 3679 3679 3679 3679 3679 3679 3679 3679 3679 3679 3679 3640 3640 3640 3640 3640 3640 3640 3640 3640 3640 3640 3640 3640 3640 3640 3640 3640 3640 3640 3640 3640 3640 3640 3640 3640 3602 3602 3640 3640 3602 3640 3640 3640 3640 3640 3640 3640 3640 3640 3640 3640 3640 3640 3640 3640 3640 3640 3602 3602 3602 3640 3640 3602 3602 3602 3602 3640 3640 3640 3640 3640 3640 3640 3640 3602 3602 3602 3602 3602 3602 3602 3602 3602 3602 3602 3602 3602 3602 3640 3602 3640 3640 3640 3640 3640 3602 3602 3640 3602 3640 3640 3602 3602 3640 3602 3602 3602 3602 3565 3565 3565 3602 3602 3602 3565 3565 3602 3602 3565 3565 3565 3565 3602 3565 3565 3602 3602 3602 3565 3565 3565 3565 3565 3565 3565 3565 3565 3602 3602 3565 3565 3565 3602 3602 3565 3565 3565 3565 3565 3602 3565 3565 3565 3565 3565 3565 3565 3602 3602 3602 3602 3602 3602 3602 3602 3602 3602 3602 3602 3602 3602 3602 3602 3565 3565 3565 3565 3602 3565 3602 3602 3602 3602 3602 3602 3602 3602 3602 3602 3602 3602 3565 3528 3565 3565 3565 3565 3565 3565 3565 3565 3565 3565 3565 3565 3565 3565 3565 3565 3565 3565 3565 3565 3565 3602 3602 3602 3602 3565 3565 3565 3565 3565 3565 3565 3602 3602 3640 3640 3640 3640 3679 3640 3640 3602 3565 3565 3528 3528 3528 3565 3565 3565 3565 3565 3602 3602 3565 3565 3565 3602 3602 3602 3602 3602 3640 3640 3602 3602 3602 3640 3640 3640 3640 3640 3640 3602 3640 3602 3565 3565 3565 3602 3602 3602 3602 3602 3602 3602 3602 3602 3565 3565 3565 3528 3528 3528 3528 3528 3528 3493 3493 3458 3458 3493 3423 3390 3390 3423 3423 3423 3390 3390 3390 3390 3357 3357 3357 3357 3357 3357 3357 3324 3293 3262 3231 3231 3231 3231 3231 3262 3262 3231 3231 3172 3172 3172 3172 3143 3115
    0 0 0 0 0 0 0 0 0 0 0 0 0 0 0 0 0 0 0 0 0 0 0 0 0 0 0 0 0 0 0 0 0 0 0 0 0 0 0 0 0 0 0 0 0 0 0 0 0 0 0 0 0 0 0 0 0 0 0 0 0 0 0 0 0 0 0 0 0 0 0 0 0 0 0 0 0 0 0 0 0 0 0 0 0 0 0 0 0 0 0 0 0 0 0 0 0 0 0 0 0 0 0 0 0 0 2335 2335 2335 2335 2335 2335 2351 0 0 0 0 3565 3528 3528 3528 3565 3565 3565 3565 3565 3565 3565 3602 3565 3602 3602 3602 3602 3602 3565 3565 3528 3528 3528 3528 3528 3528 3528 3528 3528 3528 3528 3528 3528 3528 3528 3528 3528 3528 3528 3528 3528 3528 3528 3528 3528 3528 3528 3528 3565 3565 3565 3565 3528 3528 3528 3528 3528 3493 3493 3493 3528 3528 3565 3528 3528 3565 3565 3565 3565 3565 3565 3565 3565 3565 3565 3565 3565 3565 3565 3565 3565 3565 3565 3565 3565 3565 3565 3565 3565 3565 3565 3565 3565 3565 3565 3565 3602 3602 3602 3640 3602 3640 3602 3602 3602 3602 3602 3602 3602 3640 3640 3602 3565 3565 3565 3565 3565 3565 3565 3565 3602 3602 3602 3602 3602 3640 3640 3640 3640 3640 3640 3640 3640 3640 3602 3640 3640 3602 3640 3640 3602 3640 3640 3640 3640 3640 3640 3640 3640 3640 3640 3640 3640 3640 3640 3640 3640 3640 3640 3640 3640 3640 3640 3640 3640 3640 3640 3640 3640 3640 3640 3679 3679 3679 3679 3679 3679 3679 3679 3679 3640 3640 3640 3640 3640 3640 3640 3640 3640 3640 3679 3679 3679 3679 3679 3679 3679 3679 3679 3679 3679 3679 3679 3640 3640 3640 3640 3640 3640 3640 3640 3640 3640 3640 3640 3640 3640 3640 3640 3640 3640 3640 3640 3640 3640 3640 3640 3640 3640 3640 3640 3640 3640 3640 3640 3640 3640 3640 3640 3640 3640 3640 3640 3640 3640 3640 3640 3640 3640 3640 3640 3640 3640 3640 3640 3640 3602 3640 3640 3640 3640 3640 3640 3640 3640 3640 3640 3640 3602 3602 3640 3640 3602 3602 3640 3640 3602 3602 3602 3602 3602 3640 3640 3640 3640 3640 3640 3640 3640 3640 3640 3640 3640 3640 3602 3602 3640 3602 3602 3602 3602 3602 3602 3602 3602 3602 3602 3602 3602 3602 3602 3602 3565 3565 3565 3602 3602 3602 3602 3602 3602 3602 3565 3565 3565 3565 3565 3565 3602 3602 3602 3602 3602 3565 3565 3602 3602 3565 3565 3602 3602 3602 3602 3602 3602 3602 3602 3565 3565 3602 3602 3602 3602 3602 3640 3640 3679 3640 3640 3640 3640 3640 3602 3602 3602 3602 3602 3602 3565 3565 3602 3602 3602 3602 3640 3602 3602 3602 3602 3602 3602 3602 3602 3602 3602 3602 3565 3565 3602 3565 3602 3602 3602 3602 3640 3602 3565 3602 3565 3565 3602 3602 3602 3602 3602 3602 3602 3602 3602 3640 3602 3602 3602 3602 3602 3602 3565 3565 3602 3602 3602 3640 3640 3640 3640 3640 3640 3602 3565 3565 3528 3528 3528 3565 3565 3565 3565 3565 3602 3640 3565 3565 3565 3602 3602 3640 3640 3640 3679 3679 3679 3679 3679 3679 3679 3640 3640 3640 3640 3640 3602 3602 3602 3602 3602 3602 3602 3602 3602 3602 3602 3565 3565 3602 3565 3565 3602 3528 3528 3565 3565 3528 3528 3493 3493 3493 3493 3493 3458 3458 3458 3458 3390 3390 3390 3390 3390 3357 3357 3357 3390 3390 3390 3390 3357 3324 3324 3293 3262 3262 3262 3262 3262 3262 3262 3262 3231 3172 3172 3172 3172 3143 3115
    0 0 0 0 0 0 0 0 0 0 0 0 0 0 0 0 0 0 0 0 0 0 0 0 0 0 0 0 0 0 0 0 0 0 0 0 0 0 0 0 0 0 0 0 0 0 0 0 0 0 0 0 0 0 0 0 0 0 0 0 0 0 0 0 0 0 0 0 0 0 0 0 0 0 0 0 0 0 0 0 0 0 0 0 0 0 0 0 0 0 0 0 0 0 0 0 0 0 0 0 0 0 0 0 0 2335 2335 2335 2335 2335 2335 2335 2351 2351 0 0 0 0 3528 3528 3528 3565 3565 3565 3565 3565 3602 3602 3602 3602 3602 3602 3602 3602 3602 3602 3565 3528 3528 3528 3528 3528 3528 3528 3528 3528 3528 3528 3528 3528 3528 3528 3528 3528 3565 3528 3528 3565 3565 3528 3528 3565 3528 3565 3528 3528 3565 3565 3565 3528 3528 3528 3528 3528 3528 3493 3528 3528 3528 3565 3565 3565 3565 3565 3565 3565 3565 3565 3565 3565 3565 3565 3565 3565 3565 3602 3602 3602 3602 3602 3602 3602 3565 3565 3565 3565 3565 3565 3565 3565 3565 3565 3602 3602 3602 3640 3640 3640 3640 3640 3640 3602 3640 3602 3640 3640 3640 3640 3640 3602 3602 3602 3602 3602 3565 3602 3602 3602 3640 3602 3602 3640 3640 3640 3640 3640 3679 3640 3640 3640 3640 3640 3640 3640 3640 3640 3640 3640 3640 3640 3640 3640 3640 3640 3640 3640 3640 3640 3640 3640 3640 3640 3640 3640 3640 3679 3640 3640 3640 3640 3640 3640 3640 3640 3640 3640 3640 3679 3679 3679 3679 3679 3679 3679 3679 3679 3679 3679 3679 3679 3640 3640 3640 3640 3640 3640 3679 3679 3679 3679 3679 3679 3679 3679 3679 3679 3679 3679 3679 3679 3640 3640 3640 3640 3640 3640 3640 3640 3640 3640 3640 3640 3640 3640 3679 3640 3640 3640 3640 3640 3640 3640 3640 3640 3640 3640 3640 3640 3640 3640 3640 3640 3640 3640 3640 3640 3640 3640 3640 3640 3640 3640 3640 3640 3679 3679 3679 3679 3640 3640 3640 3640 3640 3640 3640 3640 3640 3640 3640 3640 3679 3679 3679 3679 3640 3640 3640 3640 3640 3640 3640 3640 3640 3640 3640 3640 3602 3640 3640 3640 3640 3640 3640 3640 3640 3640 3640 3640 3640 3640 3640 3602 3602 3602 3602 3602 3602 3602 3602 3602 3602 3602 3602 3602 3640 3640 3602 3602 3602 3565 3602 3602 3602 3602 3640 3640 3640 3640 3602 3640 3602 3640 3640 3640 3602 3640 3602 3602 3602 3602 3565 3565 3602 3565 3602 3602 3602 3602 3602 3602 3602 3602 3602 3602 3602 3602 3602 3640 3602 3602 3640 3640 3679 3679 3679 3640 3640 3640 3640 3602 3602 3602 3602 3602 3602 3602 3602 3602 3602 3602 3602 3602 3640 3640 3640 3679 3679 3679 3679 3640 3640 3640 3602 3565 3602 3602 3602 3640 3602 3602 3640 3640 3602 3602 3602 3602 3602 3602 3602 3602 3640 3640 3602 3602 3640 3640 3640 3602 3602 3602 3602 3602 3602 3602 3602 3602 3602 3602 3640 3640 3640 3640 3640 3640 3602 3565 3565 3528 3528 3565 3565 3565 3565 3602 3602 3640 3640 3640 3640 3640 3640 3640 3679 3679 3679 3679 3679 3679 3679 3718 3679 3679 3679 3679 3679 3679 3640 3602 3602 3602 3640 3640 3602 3640 3640 3640 3602 3602 3565 3565 3602 3565 3565 3602 3565 3565 3565 3565 3528 3528 3528 3493 3493 3493 3458 3458 3458 3458 3458 3423 3423 3423 3423 3423 3390 3357 3357 3390 3390 3390 3390 3357 3357 3324 3293 3262 3262 3262 3262 3262 3262 3262 3231 3231 3201 3172 3172 3172 3143 3115
    0 0 0 0 0 0 0 0 0 0 0 0 0 0 0 0 0 0 0 0 0 0 0 0 0 0 0 0 0 0 0 0 0 0 0 0 0 0 0 0 0 0 0 0 0 0 0 0 0 0 0 0 0 0 0 0 0 0 0 0 0 0 0 0 0 0 0 0 0 0 0 0 0 0 0 0 0 0 0 0 0 0 0 0 0 0 0 0 0 0 0 0 0 0 0 0 0 0 0 0 0 0 0 0 0 2335 2335 2320 2320 2335 2335 2335 2351 2351 0 0 0 0 0 3528 3565 3565 3565 3565 3565 3602 3602 3602 3602 3602 3602 3602 3602 3602 3602 3602 3565 3528 3528 3528 3565 3528 3528 3528 3528 3528 3565 3565 3528 3528 3565 3565 3565 3565 3565 3528 3528 3565 3565 3528 3528 3528 3528 3565 3565 3565 3565 3565 3565 3528 3528 3528 3528 3528 3528 3528 3528 3528 3565 3565 3565 3565 3565 3602 3602 3602 3602 3565 3565 3565 3602 3602 3602 3602 3602 3602 3602 3602 3602 3602 3602 3602 3565 3565 3565 3565 3565 3565 3565 3565 3565 3602 3602 3640 3602 3640 3640 3640 3640 3640 3640 3602 3640 3602 3602 3640 3640 3640 3640 3602 3602 3602 3602 3602 3602 3602 3602 3602 3640 3640 3640 3640 3640 3640 3679 3679 3679 3679 3679 3640 3640 3640 3640 3640 3640 3640 3640 3640 3640 3640 3640 3640 3640 3640 3640 3640 3640 3640 3640 3640 3640 3640 3640 3679 3679 3679 3679 3679 3679 3679 3679 3640 3640 3640 3640 3640 3679 3679 3679 3679 3679 3679 3679 3679 3679 3679 3679 3679 3640 3640 3640 3640 3679 3679 3679 3679 3679 3679 3679 3679 3679 3679 3679 3679 3679 3679 3679 3679 3718 3718 3640 3640 3640 3640 3640 3640 3640 3640 3640 3679 3679 3679 3640 3679 3679 3679 3640 3679 3640 3640 3640 3640 3640 3640 3640 3679 3679 3679 3679 3640 3640 3640 3640 3640 3640 3640 3640 3640 3640 3640 3640 3640 3640 3679 3679 3679 3679 3679 3679 3679 3679 3679 3640 3640 3640 3640 3640 3679 3640 3640 3679 3679 3679 3679 3679 3679 3679 3679 3640 3640 3679 3640 3640 3640 3640 3640 3640 3640 3640 3640 3640 3679 3640 3679 3679 3679 3679 3679 3679 3679 3679 3640 3640 3640 3602 3602 3602 3602 3602 3602 3602 3640 3640 3640 3640 3640 3640 3640 3602 3602 3602 3602 3640 3602 3640 3640 3640 3640 3602 3640 3602 3640 3640 3640 3640 3640 3602 3602 3602 3602 3602 3602 3602 3602 3602 3602 3602 3602 3602 3602 3602 3602 3602 3602 3602 3602 3602 3640 3602 3640 3640 3640 3679 3679 3679 3640 3679 3679 3640 3640 3602 3602 3640 3640 3602 3602 3602 3640 3602 3602 3602 3602 3640 3640 3640 3679 3679 3679 3679 3679 3679 3679 3640 3602 3602 3602 3602 3640 3602 3602 3602 3640 3602 3602 3602 3602 3602 3602 3602 3602 3640 3640 3602 3602 3640 3640 3640 3640 3640 3602 3640 3640 3640 3602 3602 3640 3640 3640 3640 3640 3640 3640 3640 3640 3602 3565 3565 3565 3565 3565 3565 3602 3602 3640 3640 3640 3640 3640 3640 3640 3640 3640 3679 3679 3679 3679 3679 3679 3718 3718 3718 3718 3679 3679 3679 3679 3640 3602 3602 3602 3640 3640 3602 3602 3640 3640 3640 3602 3565 3602 3602 3602 3602 3602 3565 3565 3565 3565 3565 3528 3528 3493 3493 3493 3493 3458 3458 3458 3458 3458 3423 3423 3423 3390 3390 3390 3390 3390 3390 3390 3390 3357 3357 3324 3293 3293 3262 3262 3262 3262 3262 3231 3231 3231 3201 3172 3172 3172 3143 3143
    0 0 0 0 0 0 0 0 0 0 0 0 0 0 0 0 0 0 0 0 0 0 0 0 0 0 0 0 0 0 0 0 0 0 0 0 0 0 0 0 0 0 0 0 0 0 0 0 0 0 0 0 0 0 0 0 0 0 0 0 0 0 0 0 0 0 0 0 0 0 0 0 0 0 0 0 0 0 0 0 0 0 0 0 0 0 0 0 0 0 0 0 0 0 0 0 0 0 0 0 0 0 0 0 0 2335 2335 2335 2335 2335 2335 2335 2335 2335 2351 0 0 0 0 0 3565 3565 3565 3565 3602 3602 3602 3602 3602 3602 3602 3602 3602 3602 3602 3602 3565 3528 3528 3565 3565 3565 3528 3528 3565 3565 3565 3565 3565 3565 3565 3565 3565 3565 3565 3565 3565 3565 3565 3565 3565 3565 3565 3565 3565 3565 3565 3565 3565 3528 3565 3528 3528 3528 3528 3528 3528 3528 3565 3565 3565 3565 3602 3602 3602 3602 3602 3602 3602 3602 3602 3602 3602 3602 3602 3602 3602 3602 3640 3602 3602 3602 3602 3565 3565 3565 3565 3565 3565 3565 3602 3602 3602 3640 3640 3679 3679 3679 3679 3679 3679 3640 3640 3640 3640 3640 3640 3640 3640 3640 3602 3602 3640 3602 3602 3602 3640 3640 3640 3640 3640 3679 3679 3679 3679 3679 3679 3679 3679 3640 3640 3679 3679 3679 3640 3640 3640 3640 3640 3640 3640 3640 3640 3640 3640 3640 3640 3640 3679 3679 3679 3679 3679 3679 3679 3679 3679 3679 3679 3679 3679 3679 3679 3679 3679 3679 3679 3679 3679 3679 3679 3679 3679 3679 3679 3679 3679 3679 3679 3679 3679 3679 3679 3679 3679 3679 3679 3679 3679 3679 3679 3679 3679 3718 3679 3679 3679 3679 3679 3679 3640 3640 3640 3640 3640 3640 3640 3640 3679 3679 3679 3640 3640 3679 3679 3679 3679 3679 3640 3640 3640 3640 3640 3640 3640 3679 3679 3679 3679 3640 3679 3640 3640 3640 3640 3640 3640 3640 3640 3640 3640 3640 3679 3679 3679 3679 3679 3679 3679 3679 3679 3679 3679 3679 3679 3640 3640 3679 3679 3679 3679 3679 3679 3718 3679 3679 3679 3679 3640 3640 3679 3640 3640 3640 3640 3640 3640 3640 3640 3679 3679 3679 3679 3679 3679 3679 3679 3679 3679 3679 3679 3640 3640 3640 3602 3602 3602 3602 3602 3602 3602 3640 3640 3640 3640 3640 3640 3640 3640 3602 3602 3602 3640 3640 3640 3640 3640 3640 3602 3640 3602 3640 3640 3640 3602 3640 3640 3602 3602 3602 3602 3602 3602 3602 3640 3640 3602 3640 3640 3602 3640 3602 3602 3640 3640 3640 3640 3679 3640 3640 3679 3640 3679 3679 3640 3640 3679 3640 3640 3602 3602 3602 3640 3640 3602 3602 3640 3640 3640 3640 3640 3640 3679 3679 3679 3679 3679 3679 3679 3679 3679 3640 3640 3602 3602 3602 3602 3640 3640 3640 3640 3640 3640 3602 3640 3640 3602 3640 3640 3602 3640 3640 3640 3640 3640 3640 3640 3640 3640 3640 3640 3640 3640 3640 3640 3640 3640 3640 3640 3640 3640 3640 3640 3602 3640 3565 3565 3565 3565 3565 3565 3602 3602 3640 3640 3640 3640 3679 3640 3640 3640 3679 3679 3679 3679 3679 3679 3679 3679 3718 3718 3718 3718 3679 3679 3679 3679 3640 3602 3602 3640 3640 3640 3602 3640 3640 3640 3602 3602 3602 3602 3602 3602 3602 3565 3565 3565 3565 3528 3528 3493 3493 3493 3493 3493 3458 3458 3458 3458 3458 3423 3423 3423 3390 3390 3390 3390 3390 3357 3357 3357 3357 3357 3324 3293 3262 3262 3262 3262 3262 3262 3231 3231 3231 3201 3172 3172 3143 3143 3115
    0 0 0 0 0 0 0 0 0 0 0 0 0 0 0 0 0 0 0 0 0 0 0 0 0 0 0 0 0 0 0 0 0 0 0 0 0 0 0 0 0 0 0 0 0 0 0 0 0 0 0 0 0 0 0 0 0 0 0 0 0 0 0 0 0 0 0 0 0 0 0 0 0 0 0 0 0 0 0 0 0 0 0 0 0 0 0 0 0 0 0 0 0 0 0 0 0 0 0 0 0 0 0 0 0 2335 2335 2335 2335 2335 2335 2335 2335 2335 2335 0 0 0 0 0 3602 3602 3602 3602 3602 3602 3602 3602 3602 3602 3602 3602 3602 3602 3602 3602 3565 3565 3565 3565 3565 3565 3565 3528 3565 3565 3565 3565 3565 3565 3565 3565 3565 3565 3565 3565 3565 3565 3565 3565 3565 3565 3565 3565 3565 3565 3565 3565 3565 3528 3565 3528 3528 3528 3528 3528 3565 3565 3565 3565 3602 3602 3602 3640 3640 3640 3640 3602 3602 3602 3602 3602 3602 3602 3602 3602 3640 3640 3640 3640 3640 3640 3602 3602 3565 3565 3565 3602 3565 3602 3602 3602 3640 3640 3640 3640 3679 3679 3679 3679 3679 3640 3640 3640 3640 3640 3640 3640 3640 3640 3602 3602 3640 3640 3640 3640 3640 3640 3640 3640 3640 3679 3679 3679 3679 3679 3679 3679 3679 3679 3679 3679 3679 3679 3679 3679 3679 3640 3679 3640 3640 3640 3679 3640 3640 3679 3679 3679 3679 3679 3679 3679 3679 3679 3679 3679 3679 3679 3679 3679 3679 3679 3679 3679 3679 3679 3679 3679 3679 3679 3679 3679 3679 3679 3679 3679 3679 3679 3679 3679 3679 3679 3679 3679 3679 3679 3679 3679 3679 3679 3679 3679 3679 3718 3718 3718 3718 3718 3718 3718 3679 3679 3679 3679 3679 3679 3640 3640 3679 3679 3679 3679 3679 3679 3679 3679 3679 3679 3679 3679 3679 3679 3679 3679 3679 3679 3679 3679 3718 3679 3718 3679 3679 3679 3679 3679 3679 3679 3679 3679 3679 3679 3679 3679 3679 3679 3718 3718 3718 3718 3718 3718 3679 3679 3679 3640 3679 3679 3640 3679 3679 3679 3679 3718 3718 3718 3718 3679 3679 3679 3679 3640 3679 3640 3640 3640 3640 3679 3679 3679 3679 3679 3679 3679 3718 3718 3718 3718 3718 3679 3679 3640 3640 3640 3602 3602 3640 3640 3640 3640 3640 3640 3640 3679 3679 3679 3640 3640 3640 3640 3640 3640 3640 3640 3679 3640 3640 3640 3602 3640 3602 3602 3602 3602 3640 3640 3640 3640 3640 3640 3602 3640 3640 3640 3679 3679 3640 3640 3640 3640 3640 3640 3640 3640 3640 3640 3640 3679 3640 3679 3679 3679 3679 3679 3679 3679 3679 3679 3640 3602 3602 3602 3640 3640 3640 3602 3640 3640 3679 3679 3679 3679 3679 3679 3679 3679 3679 3679 3679 3679 3679 3679 3640 3640 3640 3640 3640 3679 3640 3640 3640 3679 3640 3640 3640 3640 3640 3640 3640 3640 3640 3640 3640 3640 3640 3679 3679 3640 3640 3640 3640 3640 3640 3640 3640 3640 3640 3640 3640 3640 3640 3640 3640 3640 3640 3602 3565 3565 3565 3565 3602 3602 3602 3640 3640 3640 3679 3679 3679 3679 3679 3679 3679 3679 3679 3679 3679 3679 3679 3718 3679 3718 3679 3679 3679 3679 3679 3640 3640 3640 3640 3679 3640 3640 3640 3679 3640 3640 3602 3640 3640 3640 3640 3640 3602 3602 3602 3565 3528 3528 3493 3493 3493 3493 3458 3458 3458 3458 3458 3458 3423 3423 3390 3390 3390 3357 3357 3357 3357 3357 3357 3357 3324 3324 3293 3262 3262 3262 3262 3262 3262 3231 3231 3231 3172 3143 3143 3143 3143 3115
    0 0 0 0 0 0 0 0 0 0 0 0 0 0 0 0 0 0 0 0 0 0 0 0 0 0 0 0 0 0 0 0 0 0 0 0 0 0 0 0 0 0 0 0 0 0 0 0 0 0 0 0 0 0 0 0 0 0 0 0 0 0 0 0 0 0 0 0 0 0 0 0 0 0 0 0 0 0 0 0 0 0 0 0 0 0 0 0 0 0 0 0 0 0 0 0 0 0 0 0 0 0 0 0 0 2335 2320 2320 2320 2320 2335 2335 2335 2335 2335 0 0 0 0 3602 3602 3602 3602 3602 3602 3602 3602 3602 3602 3602 3602 3602 3602 3602 3602 3602 3602 3565 3565 3565 3602 3602 3565 3565 3565 3565 3565 3565 3565 3565 3565 3565 3565 3565 3565 3565 3565 3565 3602 3565 3602 3602 3565 3565 3565 3602 3602 3565 3565 3565 3565 3565 3528 3565 3565 3565 3565 3565 3602 3602 3640 3602 3640 3640 3640 3640 3640 3602 3602 3602 3602 3602 3602 3602 3602 3640 3640 3640 3640 3640 3640 3640 3602 3602 3602 3565 3565 3565 3602 3602 3602 3602 3640 3640 3640 3679 3679 3679 3679 3679 3679 3679 3679 3640 3640 3640 3679 3640 3640 3640 3640 3640 3640 3640 3640 3640 3640 3640 3679 3679 3679 3679 3679 3679 3679 3679 3679 3679 3679 3679 3679 3679 3679 3679 3679 3679 3679 3679 3679 3679 3679 3679 3679 3679 3679 3679 3679 3679 3679 3679 3679 3679 3679 3679 3718 3679 3679 3679 3679 3679 3679 3679 3679 3679 3679 3679 3679 3718 3679 3679 3679 3718 3718 3718 3718 3718 3718 3718 3679 3718 3679 3679 3679 3718 3718 3679 3679 3679 3718 3718 3718 3718 3679 3718 3718 3718 3718 3718 3718 3759 3679 3679 3679 3679 3679 3679 3679 3679 3679 3679 3679 3679 3679 3679 3679 3679 3679 3679 3679 3679 3679 3679 3679 3679 3679 3718 3718 3718 3718 3718 3718 3679 3679 3679 3679 3679 3679 3679 3679 3679 3679 3679 3679 3679 3679 3679 3679 3679 3679 3679 3718 3718 3718 3718 3679 3679 3679 3679 3679 3679 3718 3679 3718 3718 3718 3718 3718 3679 3679 3679 3679 3679 3679 3640 3640 3679 3679 3679 3679 3679 3679 3679 3718 3718 3718 3718 3718 3718 3718 3718 3718 3679 3679 3640 3640 3640 3640 3640 3640 3640 3640 3640 3679 3679 3679 3679 3679 3679 3679 3640 3640 3640 3679 3679 3679 3679 3640 3640 3640 3640 3602 3602 3602 3602 3640 3640 3640 3640 3640 3640 3640 3679 3679 3679 3679 3718 3679 3679 3679 3679 3679 3640 3640 3640 3679 3640 3640 3679 3679 3679 3679 3679 3679 3718 3679 3679 3679 3679 3679 3640 3602 3640 3640 3640 3640 3640 3679 3679 3718 3718 3679 3679 3679 3679 3679 3679 3718 3718 3718 3718 3718 3718 3679 3640 3640 3679 3640 3679 3679 3679 3679 3679 3640 3640 3640 3640 3640 3640 3640 3640 3640 3640 3640 3640 3679 3679 3679 3679 3679 3679 3679 3679 3640 3640 3640 3679 3679 3679 3640 3640 3640 3640 3640 3640 3602 3602 3602 3602 3602 3602 3602 3602 3640 3640 3679 3679 3679 3679 3679 3679 3679 3679 3718 3718 3718 3718 3718 3718 3718 3718 3718 3718 3718 3679 3679 3679 3718 3679 3679 3679 3679 3679 3679 3640 3640 3679 3679 3640 3640 3640 3640 3640 3640 3640 3602 3602 3602 3565 3528 3528 3493 3493 3458 3458 3458 3458 3458 3458 3458 3423 3423 3390 3390 3390 3390 3390 3357 3357 3357 3357 3357 3324 3324 3293 3293 3262 3262 3262 3262 3262 3262 3262 3231 3231 3172 3143 3143 3143 3143 3143
    0 0 0 0 0 0 0 0 0 0 0 0 0 0 0 0 0 0 0 0 0 0 0 0 0 0 0 0 0 0 0 0 0 0 0 0 0 0 0 0 0 0 0 0 0 0 0 0 0 0 0 0 0 0 0 0 0 0 0 0 0 0 0 0 0 0 0 0 0 0 0 0 0 0 0 0 0 0 0 0 0 0 0 0 0 0 0 0 0 0 0 0 0 0 0 0 0 0 0 0 0 0 0 0 0 2320 2320 2320 2320 2320 2320 2320 2335 2335 2335 0 0 0 0 0 3602 3602 3602 3602 3602 3602 3640 3640 3640 3640 3640 3640 3602 3602 3602 3602 3602 3602 3602 3602 3602 3602 3602 3565 3565 3565 3565 3565 3565 3565 3565 3602 3602 3602 3602 3602 3602 3602 3602 3602 3602 3602 3602 3602 3602 3602 3602 3602 3565 3565 3565 3565 3565 3565 3565 3602 3602 3602 3640 3640 3640 3640 3640 3640 3640 3640 3640 3602 3602 3640 3640 3640 3640 3602 3602 3640 3640 3640 3640 3640 3640 3640 3602 3602 3602 3602 3602 3602 3602 3602 3640 3640 3640 3679 3679 3679 3679 3679 3679 3679 3679 3679 3679 3679 3640 3679 3679 3679 3679 3640 3640 3640 3640 3679 3679 3640 3679 3679 3679 3679 3679 3679 3679 3718 3718 3679 3679 3679 3679 3679 3679 3679 3679 3679 3679 3679 3679 3679 3679 3679 3679 3679 3679 3679 3679 3679 3679 3679 3679 3679 3718 3718 3718 3718 3718 3718 3718 3718 3679 3679 3679 3679 3679 3679 3679 3679 3718 3718 3718 3718 3718 3718 3718 3718 3718 3718 3718 3718 3718 3718 3718 3718 3718 3718 3718 3718 3718 3718 3718 3718 3718 3718 3718 3718 3718 3759 3718 3759 3759 3759 3679 3679 3679 3679 3679 3679 3679 3679 3718 3718 3718 3718 3718 3718 3679 3718 3679 3679 3679 3679 3679 3679 3679 3679 3679 3718 3718 3718 3759 3718 3718 3718 3718 3679 3679 3718 3679 3679 3679 3679 3718 3679 3679 3679 3679 3679 3718 3718 3718 3718 3718 3759 3718 3718 3679 3679 3679 3718 3679 3679 3718 3718 3718 3759 3759 3718 3759 3718 3718 3718 3718 3679 3718 3679 3679 3679 3679 3679 3679 3718 3718 3718 3718 3718 3759 3759 3759 3759 3718 3759 3759 3679 3679 3679 3679 3640 3679 3640 3679 3640 3679 3679 3679 3679 3679 3679 3640 3679 3679 3640 3679 3679 3679 3679 3718 3679 3640 3640 3640 3640 3640 3640 3640 3640 3640 3640 3640 3640 3679 3679 3679 3679 3679 3679 3718 3718 3679 3679 3679 3679 3679 3679 3679 3679 3679 3679 3679 3679 3679 3679 3679 3679 3718 3718 3679 3679 3679 3679 3679 3679 3640 3640 3679 3679 3679 3679 3679 3718 3718 3718 3718 3679 3718 3679 3718 3718 3718 3718 3718 3718 3718 3718 3679 3679 3679 3679 3679 3679 3679 3679 3679 3679 3679 3679 3679 3679 3679 3679 3679 3679 3679 3640 3640 3679 3679 3679 3679 3679 3679 3679 3679 3679 3640 3640 3640 3679 3679 3679 3640 3640 3640 3640 3640 3602 3602 3602 3602 3640 3640 3640 3640 3640 3640 3679 3679 3679 3679 3679 3679 3679 3679 3718 3718 3718 3718 3718 3718 3718 3718 3718 3718 3718 3718 3718 3679 3718 3718 3679 3679 3679 3679 3679 3640 3640 3640 3679 3640 3640 3640 3640 3679 3640 3640 3640 3602 3602 3565 3565 3528 3528 3493 3493 3458 3458 3458 3458 3458 3458 3458 3423 3423 3390 3390 3390 3390 3357 3357 3357 3324 3324 3324 3324 3293 3293 3262 3262 3262 3262 3262 3262 3262 3231 3231 3231 3172 3172 3172 3172 3172 3143
    0 0 0 0 0 0 0 0 0 0 0 0 0 0 0 0 0 0 0 0 0 0 0 0 0 0 0 0 0 0 0 0 0 0 0 0 0 0 0 0 0 0 0 0 0 0 0 0 0 0 0 0 0 0 0 0 0 0 0 0 0 0 0 0 0 0 0 0 0 0 0 0 0 0 0 0 0 0 0 0 0 0 0 0 0 0 0 0 0 0 0 0 0 0 0 0 0 0 0 0 0 0 0 0 0 2304 2304 2304 2304 2320 2320 2320 2335 2320 0 0 0 0 0 0 3602 3602 3602 3602 3602 3640 3640 3640 3640 3640 3640 3640 3640 3602 3602 3640 3640 3602 3602 3602 3640 3640 3640 3602 3602 3602 3602 3565 3565 3565 3565 3602 3602 3602 3602 3602 3602 3602 3565 3565 3602 3602 3602 3602 3602 3640 3640 3602 3565 3565 3602 3602 3565 3602 3602 3640 3640 3640 3679 3679 3640 3640 3640 3640 3640 3640 3640 3640 3602 3640 3640 3640 3640 3640 3602 3640 3640 3679 3679 3640 3640 3640 3640 3640 3640 3602 3602 3602 3602 3602 3640 3640 3640 3640 3679 3679 3679 3679 3679 3679 3679 3679 3679 3679 3679 3679 3679 3679 3679 3640 3640 3640 3679 3679 3679 3640 3679 3679 3679 3679 3679 3718 3718 3718 3718 3718 3679 3679 3679 3679 3679 3679 3679 3679 3679 3718 3718 3718 3718 3718 3718 3679 3679 3679 3679 3679 3679 3679 3679 3718 3718 3718 3718 3718 3759 3718 3718 3718 3679 3679 3679 3679 3679 3679 3679 3718 3718 3718 3718 3718 3718 3759 3759 3718 3759 3759 3759 3759 3759 3759 3718 3718 3718 3759 3718 3718 3718 3718 3718 3718 3718 3718 3718 3718 3759 3759 3759 3759 3759 3759 3679 3679 3718 3718 3718 3718 3679 3718 3718 3718 3718 3718 3718 3718 3718 3718 3718 3718 3718 3679 3718 3718 3718 3679 3718 3718 3759 3759 3759 3759 3759 3759 3718 3718 3718 3718 3718 3718 3718 3718 3718 3718 3718 3718 3718 3718 3718 3759 3759 3759 3759 3759 3759 3759 3718 3718 3718 3718 3718 3718 3718 3718 3718 3759 3718 3718 3718 3718 3718 3718 3718 3718 3718 3718 3679 3718 3679 3718 3718 3718 3718 3718 3759 3759 3759 3759 3759 3759 3759 3759 3759 3718 3718 3718 3718 3679 3679 3679 3679 3679 3679 3718 3679 3718 3679 3679 3679 3679 3679 3679 3679 3679 3718 3718 3718 3718 3679 3679 3640 3640 3640 3640 3640 3640 3640 3640 3640 3640 3679 3679 3679 3679 3679 3679 3679 3718 3679 3679 3679 3679 3679 3679 3679 3679 3679 3679 3679 3679 3679 3679 3679 3679 3718 3718 3718 3718 3718 3718 3679 3679 3640 3679 3679 3718 3718 3718 3718 3718 3718 3718 3718 3718 3718 3718 3718 3718 3718 3718 3718 3718 3718 3718 3679 3679 3679 3679 3679 3718 3679 3679 3679 3679 3679 3679 3679 3679 3679 3679 3679 3679 3679 3679 3679 3679 3679 3679 3679 3679 3679 3679 3679 3679 3679 3679 3679 3679 3679 3679 3679 3679 3679 3640 3640 3640 3640 3602 3640 3640 3679 3640 3640 3640 3679 3679 3679 3679 3679 3679 3679 3718 3718 3718 3718 3718 3718 3718 3718 3718 3718 3718 3718 3718 3718 3718 3679 3718 3718 3679 3679 3679 3679 3679 3679 3679 3679 3679 3679 3640 3640 3640 3679 3640 3640 3640 3602 3602 3602 3565 3528 3528 3528 3493 3493 3458 3458 3458 3458 3458 3458 3423 3423 3423 3390 3390 3390 3357 3357 3324 3324 3324 3324 3293 3293 3262 3262 3262 3262 3262 3262 3262 3262 3231 3231 3231 3201 3172 3172 3172 3172 3143
    0 0 0 0 0 0 0 0 0 0 0 0 0 0 0 0 0 0 0 0 0 0 0 0 0 0 0 0 0 0 0 0 0 0 0 0 0 0 0 0 0 0 0 0 0 0 0 0 0 0 0 0 0 0 0 0 0 0 0 0 0 0 0 0 0 0 0 0 0 0 0 0 0 0 0 0 0 0 0 0 0 0 0 0 0 0 0 0 0 0 0 0 0 0 0 0 0 0 0 0 0 0 0 0 2304 2320 2304 2320 2304 2320 2320 2320 2320 2320 2335 0 0 0 3458 0 3602 3602 3602 3602 3640 3640 3640 3640 3640 3640 3640 3679 3640 3640 3640 3640 3640 3640 3640 3640 3640 3640 3640 3602 3602 3602 3602 3602 3565 3602 3602 3602 3602 3602 3602 3602 3602 3602 3602 3602 3602 3602 3602 3602 3602 3640 3640 3640 3602 3602 3640 3640 3602 3602 3640 3640 3640 3640 3679 3640 3640 3640 3679 3640 3640 3640 3640 3640 3640 3640 3640 3640 3640 3640 3640 3640 3679 3679 3679 3679 3679 3679 3679 3640 3679 3640 3640 3640 3640 3640 3640 3640 3640 3679 3679 3679 3679 3679 3679 3679 3679 3679 3679 3679 3679 3679 3679 3679 3679 3679 3679 3679 3679 3679 3679 3679 3679 3679 3679 3679 3679 3679 3679 3679 3718 3718 3679 3679 3679 3679 3679 3679 3679 3679 3718 3718 3718 3718 3718 3718 3718 3718 3718 3679 3679 3679 3679 3679 3718 3718 3759 3759 3759 3759 3759 3718 3718 3718 3718 3679 3679 3679 3679 3679 3718 3718 3759 3759 3800 3800 3718 3759 3759 3759 3759 3759 3759 3800 3759 3759 3759 3759 3759 3759 3759 3759 3759 3759 3759 3759 3759 3718 3718 3759 3759 3759 3759 3759 3759 3800 3718 3718 3759 3759 3718 3718 3718 3718 3759 3759 3759 3759 3759 3759 3759 3759 3759 3718 3718 3718 3718 3759 3718 3718 3759 3759 3759 3759 3759 3759 3759 3759 3759 3718 3718 3718 3718 3718 3718 3718 3718 3718 3718 3759 3718 3718 3759 3759 3759 3759 3759 3759 3759 3759 3759 3759 3759 3759 3718 3718 3759 3759 3759 3759 3759 3759 3759 3759 3718 3718 3718 3718 3718 3718 3718 3718 3718 3759 3718 3759 3759 3759 3759 3759 3759 3759 3759 3759 3759 3759 3759 3718 3718 3718 3718 3679 3679 3679 3679 3679 3679 3679 3679 3718 3718 3679 3679 3679 3679 3679 3679 3679 3718 3718 3718 3718 3718 3679 3679 3679 3679 3640 3640 3640 3640 3679 3679 3679 3679 3679 3679 3679 3718 3718 3718 3718 3679 3679 3718 3718 3718 3679 3718 3679 3718 3718 3679 3718 3679 3718 3718 3718 3718 3718 3718 3718 3718 3718 3718 3679 3679 3679 3718 3718 3718 3718 3718 3718 3759 3759 3718 3718 3718 3718 3718 3718 3718 3718 3718 3718 3718 3718 3679 3679 3679 3718 3679 3718 3679 3679 3679 3679 3679 3718 3718 3679 3679 3718 3679 3718 3679 3679 3679 3679 3679 3679 3679 3679 3679 3679 3679 3679 3679 3679 3679 3718 3679 3718 3679 3679 3679 3679 3679 3640 3640 3640 3640 3679 3679 3679 3679 3640 3679 3679 3679 3679 3679 3679 3679 3718 3718 3718 3718 3718 3718 3718 3718 3718 3718 3718 3718 3718 3718 3718 3718 3718 3718 3679 3679 3679 3679 3718 3679 3679 3679 3679 3679 3640 3640 3640 3679 3679 3640 3640 3602 3602 3602 3565 3528 3528 3528 3528 3493 3493 3493 3458 3458 3458 3423 3423 3423 3390 3390 3390 3390 3357 3357 3324 3324 3324 3324 3293 3293 3262 3262 3262 3262 3262 3262 3262 3231 3231 3231 3201 3201 3172 3172 3172 3172 3172
    0 0 0 0 0 0 0 0 0 0 0 0 0 0 0 0 0 0 0 0 0 0 0 0 0 0 0 0 0 0 0 0 0 0 0 0 0 0 0 0 0 0 0 0 0 0 0 0 0 0 0 0 0 0 0 0 0 0 0 0 0 0 0 0 0 0 0 0 0 0 0 0 0 0 0 0 0 0 0 0 0 0 0 0 0 0 0 0 0 0 0 0 0 0 0 0 0 0 0 0 0 0 0 0 2304 2304 2304 2320 2304 2320 2320 2320 2320 2320 2335 0 0 0 3458 3565 3602 3640 3640 3640 3640 3679 3640 3640 3640 3640 3679 3679 3640 3640 3640 3679 3679 3640 3640 3640 3640 3640 3640 3602 3602 3602 3602 3602 3602 3602 3602 3640 3640 3640 3640 3640 3640 3602 3602 3602 3640 3640 3602 3640 3640 3640 3640 3640 3602 3602 3640 3640 3640 3640 3640 3640 3679 3679 3679 3679 3679 3679 3679 3679 3679 3640 3679 3640 3640 3640 3640 3640 3679 3679 3640 3640 3679 3679 3679 3679 3679 3679 3679 3679 3679 3679 3679 3640 3640 3679 3679 3679 3679 3679 3679 3679 3679 3718 3679 3679 3679 3679 3679 3679 3679 3679 3679 3718 3718 3679 3679 3679 3679 3679 3718 3679 3679 3679 3679 3679 3679 3679 3679 3679 3718 3718 3679 3679 3679 3679 3679 3718 3718 3718 3718 3718 3759 3759 3759 3759 3759 3759 3718 3718 3718 3718 3718 3718 3718 3718 3759 3759 3759 3759 3759 3759 3718 3718 3718 3679 3679 3679 3679 3718 3718 3759 3759 3759 3759 3759 3759 3759 3800 3759 3800 3800 3800 3800 3800 3800 3759 3759 3759 3759 3759 3759 3759 3759 3759 3759 3759 3759 3759 3759 3759 3759 3759 3759 3800 3800 3759 3759 3759 3759 3759 3759 3759 3718 3759 3759 3759 3759 3759 3759 3759 3759 3759 3759 3759 3759 3759 3759 3759 3759 3759 3759 3759 3759 3759 3759 3759 3759 3759 3759 3759 3759 3759 3759 3718 3718 3759 3718 3759 3759 3759 3759 3759 3759 3759 3759 3759 3800 3800 3759 3759 3759 3759 3759 3759 3759 3759 3759 3759 3759 3759 3759 3759 3759 3759 3718 3759 3759 3759 3759 3759 3759 3759 3759 3759 3759 3759 3759 3759 3759 3759 3759 3759 3759 3759 3759 3759 3718 3718 3718 3718 3718 3718 3718 3718 3718 3718 3718 3718 3718 3718 3718 3679 3718 3679 3679 3718 3718 3718 3718 3759 3718 3718 3718 3679 3679 3679 3640 3640 3679 3679 3679 3718 3718 3718 3718 3718 3718 3718 3718 3718 3718 3718 3718 3718 3718 3718 3679 3718 3718 3718 3718 3679 3718 3718 3718 3718 3718 3718 3718 3718 3718 3718 3718 3718 3718 3679 3679 3718 3718 3718 3718 3718 3759 3759 3759 3759 3759 3718 3718 3718 3718 3718 3718 3718 3718 3718 3759 3718 3718 3718 3718 3718 3718 3718 3718 3679 3718 3718 3718 3718 3718 3679 3718 3718 3718 3718 3679 3679 3679 3718 3718 3679 3679 3679 3718 3718 3679 3679 3679 3718 3718 3718 3718 3718 3718 3679 3679 3679 3640 3640 3640 3679 3679 3679 3679 3679 3679 3679 3679 3679 3679 3679 3718 3718 3718 3718 3718 3718 3718 3718 3718 3718 3718 3718 3718 3718 3718 3718 3718 3718 3718 3718 3679 3718 3718 3679 3718 3679 3679 3679 3679 3679 3679 3679 3679 3679 3679 3679 3679 3602 3602 3602 3565 3528 3528 3528 3528 3493 3493 3493 3493 3493 3458 3458 3423 3423 3423 3390 3390 3390 3357 3357 3357 3324 3324 3293 3293 3262 3262 3262 3262 3262 3262 3262 3262 3231 3231 3201 3201 3172 3172 3172 3172 3172 3172
    0 0 0 0 0 0 0 0 0 0 0 0 0 0 0 0 0 0 0 0 0 0 0 0 0 0 0 0 0 0 0 0 0 0 0 0 0 0 0 0 0 0 0 0 0 0 0 0 0 0 0 0 0 0 0 0 0 0 0 0 0 0 0 0 0 0 0 0 0 0 0 0 0 0 0 0 0 0 0 0 0 0 0 0 0 0 0 0 0 0 0 0 0 0 0 0 0 0 0 0 0 0 0 2304 2304 2304 2304 2304 2304 2320 2320 2320 2320 2320 2320 0 0 0 3602 3602 3640 3679 3679 3679 3679 3679 3679 3679 3679 3679 3679 3679 3679 3640 3640 3679 3679 3640 3640 3640 3640 3640 3640 3640 3640 3602 3602 3602 3602 3602 3640 3640 3640 3640 3640 3640 3679 3640 3640 3640 3640 3640 3640 3640 3640 3679 3640 3679 3640 3640 3679 3679 3640 3640 3640 3640 3679 3640 3640 3640 3640 3640 3679 3679 3679 3679 3679 3679 3679 3679 3679 3679 3679 3679 3679 3679 3679 3679 3679 3679 3679 3679 3679 3679 3679 3679 3679 3679 3679 3679 3679 3679 3679 3679 3679 3718 3718 3718 3679 3718 3718 3679 3679 3679 3718 3718 3718 3718 3718 3679 3679 3679 3679 3718 3718 3718 3679 3679 3718 3718 3718 3679 3679 3679 3679 3718 3718 3718 3679 3718 3718 3718 3718 3718 3718 3759 3759 3759 3759 3759 3800 3759 3759 3759 3759 3718 3718 3718 3718 3759 3759 3759 3759 3800 3759 3759 3718 3718 3718 3679 3679 3679 3679 3718 3759 3759 3759 3800 3800 3800 3800 3800 3800 3800 3800 3800 3800 3800 3800 3800 3800 3800 3800 3800 3800 3800 3800 3800 3800 3800 3800 3800 3759 3800 3800 3800 3800 3800 3800 3800 3759 3759 3759 3759 3759 3759 3759 3759 3759 3759 3759 3759 3759 3759 3759 3759 3759 3759 3759 3759 3759 3759 3759 3759 3800 3800 3800 3800 3800 3759 3759 3759 3759 3759 3759 3759 3759 3759 3759 3759 3759 3759 3759 3759 3759 3759 3759 3759 3759 3759 3800 3800 3800 3800 3800 3800 3800 3800 3800 3759 3759 3759 3759 3759 3759 3759 3759 3759 3759 3759 3759 3759 3759 3759 3759 3759 3759 3759 3759 3759 3759 3759 3759 3759 3800 3759 3759 3759 3759 3759 3759 3718 3718 3718 3718 3718 3718 3718 3718 3718 3718 3718 3718 3718 3718 3718 3679 3718 3718 3718 3718 3718 3718 3759 3759 3718 3718 3718 3718 3679 3679 3640 3640 3679 3679 3679 3718 3718 3718 3718 3718 3718 3718 3718 3718 3718 3718 3718 3718 3718 3718 3718 3718 3718 3718 3718 3679 3718 3718 3718 3718 3718 3718 3718 3718 3718 3718 3718 3718 3718 3718 3718 3718 3718 3759 3759 3759 3759 3759 3800 3759 3759 3759 3718 3718 3718 3718 3718 3718 3718 3759 3759 3718 3718 3718 3718 3718 3718 3718 3718 3679 3718 3718 3718 3718 3679 3679 3718 3718 3718 3718 3718 3718 3718 3718 3718 3718 3718 3718 3718 3718 3679 3679 3679 3718 3718 3718 3718 3718 3718 3718 3679 3679 3679 3679 3679 3679 3679 3679 3679 3679 3679 3679 3679 3679 3679 3718 3718 3718 3718 3718 3718 3718 3718 3718 3718 3718 3718 3718 3718 3718 3718 3718 3718 3718 3718 3718 3718 3718 3718 3718 3718 3718 3679 3679 3718 3718 3679 3679 3679 3679 3679 3679 3640 3602 3602 3565 3565 3565 3528 3528 3528 3493 3493 3493 3493 3493 3458 3458 3458 3423 3423 3390 3390 3390 3390 3357 3357 3324 3324 3324 3293 3262 3262 3262 3262 3262 3262 3262 3262 3231 3231 3201 3201 3172 3172 3172 3172 3172 3172
    0 0 0 0 0 0 0 0 0 0 0 0 0 0 0 0 0 0 0 0 0 0 0 0 0 0 0 0 0 0 0 0 0 0 0 0 0 0 0 0 0 0 0 0 0 0 0 0 0 0 0 0 0 0 0 0 0 0 0 0 0 0 0 0 0 0 0 0 0 0 0 0 0 0 0 0 0 0 0 0 0 0 0 0 0 0 0 0 0 0 0 0 0 0 0 0 0 0 0 0 0 0 0 2304 2304 2274 2304 2304 2304 2320 2320 2320 2320 2320 0 0 0 0 0 3640 3679 3679 3679 3679 3679 3718 3679 3679 3679 3679 3679 3679 3640 3640 3640 3679 3679 3640 3640 3640 3640 3640 3640 3640 3602 3602 3602 3602 3602 3640 3640 3640 3640 3640 3679 3640 3679 3640 3640 3640 3679 3679 3679 3679 3679 3679 3679 3679 3640 3640 3679 3679 3679 3679 3679 3679 3679 3679 3679 3640 3679 3679 3679 3679 3679 3679 3679 3679 3679 3679 3679 3718 3718 3718 3679 3679 3679 3679 3679 3679 3679 3679 3679 3718 3718 3718 3718 3718 3718 3718 3718 3718 3718 3718 3718 3718 3718 3718 3718 3718 3718 3718 3718 3718 3718 3718 3718 3718 3718 3718 3679 3718 3718 3718 3759 3759 3718 3718 3718 3759 3718 3718 3679 3679 3718 3718 3718 3718 3718 3718 3718 3759 3759 3759 3759 3759 3759 3759 3759 3800 3800 3800 3800 3800 3759 3759 3759 3759 3759 3759 3759 3759 3759 3800 3759 3759 3759 3718 3718 3679 3679 3679 3679 3718 3759 3759 3759 3800 3800 3800 3800 3800 3800 3800 3800 3800 3800 3800 3800 3800 3800 3800 3800 3800 3800 3800 3800 3800 3800 3800 3800 3800 3800 3800 3800 3800 3800 3800 3842 3842 3800 3800 3800 3800 3800 3800 3759 3759 3759 3759 3759 3759 3759 3759 3759 3759 3759 3759 3759 3800 3800 3800 3800 3800 3800 3800 3800 3800 3800 3800 3759 3759 3759 3759 3759 3759 3759 3759 3759 3759 3800 3800 3759 3759 3759 3759 3759 3759 3759 3759 3800 3800 3800 3800 3800 3800 3800 3800 3800 3800 3800 3759 3759 3759 3759 3759 3759 3759 3759 3759 3759 3759 3759 3759 3759 3759 3759 3759 3759 3759 3759 3800 3800 3800 3800 3800 3800 3759 3759 3759 3759 3718 3718 3718 3718 3718 3718 3718 3718 3718 3718 3718 3718 3718 3718 3718 3718 3718 3718 3718 3718 3718 3759 3759 3759 3759 3759 3759 3718 3718 3679 3679 3679 3679 3679 3679 3718 3718 3718 3718 3718 3718 3718 3718 3718 3718 3718 3718 3718 3718 3718 3718 3718 3718 3718 3718 3718 3718 3718 3718 3718 3718 3718 3718 3759 3759 3759 3759 3759 3759 3718 3718 3759 3759 3759 3800 3800 3800 3800 3800 3759 3759 3759 3718 3718 3759 3718 3718 3718 3718 3759 3759 3718 3718 3718 3718 3718 3718 3718 3718 3718 3718 3718 3718 3718 3679 3679 3718 3718 3718 3718 3718 3718 3718 3718 3718 3718 3718 3718 3718 3718 3718 3679 3679 3718 3718 3718 3718 3718 3718 3718 3718 3718 3679 3679 3679 3679 3718 3718 3679 3679 3718 3718 3679 3718 3718 3718 3718 3718 3718 3718 3718 3718 3718 3718 3718 3718 3718 3718 3718 3718 3718 3718 3718 3718 3718 3718 3718 3718 3718 3718 3718 3718 3718 3718 3718 3718 3679 3679 3679 3679 3679 3679 3640 3602 3602 3602 3602 3565 3565 3528 3528 3528 3493 3493 3493 3493 3458 3458 3458 3423 3423 3390 3390 3390 3390 3357 3357 3324 3324 3324 3262 3262 3262 3262 3262 3262 3262 3262 3262 3231 3231 3231 3172 3172 3172 3172 3172 3143 3172
    0 0 0 0 0 0 0 0 0 0 0 0 0 0 0 0 0 0 0 0 0 0 0 0 0 0 0 0 0 0 0 0 0 0 0 0 0 0 0 0 0 0 0 0 0 0 0 0 0 0 0 0 0 0 0 0 0 0 0 0 0 0 0 0 0 0 0 0 0 0 0 0 0 0 0 0 0 0 0 0 0 0 0 0 0 0 0 0 0 0 0 0 0 0 0 0 0 0 0 0 0 0 0 2289 2274 2274 2289 2289 2304 2304 2304 2320 2304 2320 0 0 0 0 0 3679 3679 3679 3679 3718 3718 3718 3679 3679 3679 3679 3679 3640 3640 3640 3640 3679 3679 3640 3640 3640 3640 3640 3640 3640 3602 3602 3602 3602 3640 3640 3640 3640 3679 3679 3679 3679 3679 3679 3640 3640 3679 3679 3679 3679 3679 3679 3679 3679 3679 3679 3679 3679 3679 3679 3679 3679 3679 3679 3679 3679 3679 3679 3679 3679 3679 3679 3679 3679 3679 3679 3718 3718 3718 3718 3679 3679 3679 3679 3679 3679 3718 3718 3718 3718 3718 3718 3718 3718 3718 3718 3718 3718 3718 3718 3718 3718 3718 3718 3718 3718 3718 3718 3718 3718 3718 3718 3718 3718 3759 3718 3718 3718 3718 3759 3759 3759 3759 3759 3759 3759 3759 3718 3718 3718 3718 3759 3759 3718 3718 3759 3759 3759 3759 3759 3759 3759 3759 3759 3800 3800 3800 3800 3800 3800 3800 3800 3759 3759 3759 3759 3800 3759 3800 3800 3800 3800 3759 3759 3759 3759 3718 3718 3718 3759 3759 3800 3800 3800 3800 3800 3800 3800 3800 3800 3800 3800 3800 3842 3800 3800 3800 3800 3800 3800 3800 3800 3800 3842 3842 3842 3800 3800 3800 3800 3800 3800 3800 3800 3842 3842 3800 3800 3800 3800 3800 3800 3800 3759 3759 3800 3800 3759 3759 3759 3759 3800 3759 3759 3800 3800 3800 3800 3800 3800 3800 3800 3800 3800 3800 3800 3800 3800 3759 3759 3759 3759 3759 3759 3759 3759 3800 3800 3759 3759 3759 3759 3800 3800 3800 3800 3800 3800 3800 3800 3800 3800 3800 3800 3800 3800 3800 3800 3800 3759 3759 3759 3759 3759 3759 3759 3800 3800 3800 3800 3800 3800 3759 3759 3800 3800 3800 3800 3800 3800 3800 3800 3800 3759 3759 3759 3759 3718 3718 3759 3759 3718 3759 3718 3718 3718 3718 3718 3718 3718 3718 3718 3718 3718 3718 3718 3718 3759 3759 3759 3759 3759 3759 3759 3759 3718 3718 3718 3718 3718 3718 3718 3718 3718 3718 3718 3718 3718 3718 3718 3718 3718 3718 3718 3718 3718 3718 3718 3718 3718 3718 3718 3718 3718 3718 3759 3759 3759 3759 3759 3759 3759 3759 3759 3759 3759 3759 3759 3759 3759 3800 3800 3842 3842 3800 3800 3800 3800 3759 3759 3759 3759 3759 3718 3759 3718 3759 3759 3718 3718 3718 3718 3718 3718 3718 3718 3718 3718 3718 3718 3718 3718 3718 3718 3759 3759 3759 3718 3759 3718 3759 3718 3718 3718 3718 3718 3718 3718 3679 3718 3718 3718 3718 3718 3718 3718 3718 3718 3718 3679 3679 3718 3718 3718 3718 3679 3718 3718 3718 3718 3718 3718 3718 3718 3718 3718 3718 3718 3718 3718 3718 3718 3718 3718 3718 3759 3718 3718 3718 3718 3718 3718 3718 3718 3718 3718 3718 3718 3718 3718 3718 3718 3718 3679 3679 3679 3679 3679 3640 3640 3602 3602 3602 3602 3565 3565 3565 3528 3528 3528 3493 3493 3493 3493 3493 3493 3458 3458 3423 3423 3390 3390 3390 3357 3324 3324 3324 3293 3293 3262 3262 3262 3262 3262 3262 3262 3262 3231 3231 3201 3172 3172 3172 3172 3143 3172
    0 0 0 0 0 0 0 0 0 0 0 0 0 0 0 0 0 0 0 0 0 0 0 0 0 0 0 0 0 0 0 0 0 0 0 0 0 0 0 0 0 0 0 0 0 0 0 0 0 0 0 0 0 0 0 0 0 0 0 0 0 0 0 0 0 0 0 0 0 0 0 0 0 0 0 0 0 0 0 0 0 0 0 0 0 0 0 0 0 0 0 0 0 0 0 0 0 0 0 0 0 0 0 2274 2274 2274 2274 2274 2289 2304 2304 2320 2304 2320 2320 0 0 0 3679 3679 3679 3718 3718 3718 3718 3718 3679 3679 3679 3679 3679 3679 3679 3640 3679 3679 3679 3640 3640 3640 3640 3640 3640 3640 3640 3640 3640 3640 3640 3640 3679 3679 3679 3679 3679 3679 3679 3679 3679 3679 3679 3679 3679 3679 3679 3679 3679 3679 3679 3679 3679 3679 3679 3679 3679 3679 3679 3679 3679 3679 3679 3679 3679 3679 3718 3718 3718 3718 3718 3718 3718 3718 3718 3718 3718 3718 3718 3718 3718 3679 3718 3718 3718 3718 3718 3718 3718 3718 3718 3718 3759 3718 3718 3718 3718 3718 3759 3759 3718 3759 3759 3759 3759 3759 3759 3759 3759 3759 3759 3718 3718 3718 3718 3759 3759 3759 3759 3759 3800 3800 3800 3759 3718 3718 3718 3759 3718 3718 3718 3759 3759 3759 3759 3759 3759 3759 3800 3759 3800 3800 3800 3800 3800 3800 3800 3800 3800 3759 3800 3800 3800 3800 3800 3800 3800 3800 3800 3800 3759 3759 3759 3718 3759 3759 3800 3800 3800 3800 3800 3800 3800 3800 3800 3800 3800 3800 3800 3842 3842 3842 3800 3800 3800 3800 3842 3842 3842 3842 3842 3842 3842 3842 3842 3842 3842 3800 3800 3800 3842 3842 3800 3800 3800 3800 3800 3800 3800 3800 3800 3800 3800 3800 3800 3800 3800 3800 3800 3800 3800 3800 3800 3842 3800 3842 3800 3800 3800 3800 3800 3800 3800 3800 3800 3800 3800 3800 3800 3800 3800 3800 3800 3800 3800 3800 3800 3800 3800 3800 3800 3800 3800 3800 3800 3800 3842 3842 3842 3842 3800 3800 3800 3800 3800 3800 3800 3800 3800 3800 3800 3800 3800 3800 3800 3800 3800 3800 3800 3800 3800 3800 3800 3800 3800 3800 3800 3800 3800 3800 3800 3800 3800 3759 3759 3759 3759 3759 3759 3759 3759 3759 3759 3718 3718 3718 3718 3718 3718 3759 3759 3759 3759 3759 3759 3800 3800 3759 3759 3759 3759 3759 3718 3718 3718 3718 3718 3718 3718 3718 3718 3718 3718 3718 3718 3718 3718 3718 3718 3718 3718 3718 3718 3718 3718 3718 3718 3718 3718 3718 3759 3759 3759 3759 3759 3759 3759 3759 3759 3759 3759 3759 3759 3759 3800 3800 3800 3842 3842 3842 3842 3842 3800 3800 3759 3759 3759 3759 3759 3718 3759 3759 3759 3759 3718 3718 3718 3718 3718 3718 3718 3718 3718 3718 3718 3718 3718 3718 3718 3759 3759 3800 3800 3800 3759 3759 3759 3759 3718 3718 3718 3718 3718 3679 3679 3718 3718 3718 3718 3718 3718 3718 3718 3759 3718 3718 3718 3718 3718 3718 3718 3718 3718 3718 3718 3718 3718 3718 3718 3718 3718 3718 3718 3718 3718 3718 3718 3718 3718 3718 3718 3759 3718 3718 3718 3718 3718 3718 3718 3718 3718 3718 3718 3718 3718 3718 3718 3718 3718 3718 3718 3718 3679 3679 3640 3640 3602 3602 3602 3602 3602 3602 3602 3565 3528 3528 3528 3493 3493 3493 3493 3493 3458 3458 3423 3423 3390 3390 3357 3357 3324 3324 3324 3293 3293 3262 3262 3262 3262 3293 3293 3293 3262 3231 3231 3201 3172 3172 3172 3172 3143 3172
    0 0 0 0 0 0 0 0 0 0 0 0 0 0 0 0 0 0 0 0 0 0 0 0 0 0 0 0 0 0 0 0 0 0 0 0 0 0 0 0 0 0 0 0 0 0 0 0 0 0 0 0 0 0 0 0 0 0 0 0 0 0 0 0 0 0 0 0 0 0 0 0 0 0 0 0 0 0 0 0 0 0 0 0 0 0 0 0 0 0 0 0 0 0 0 0 0 0 0 0 0 0 0 2274 2274 2274 2274 2274 2289 2304 2304 2320 2304 2320 0 0 0 0 0 3679 3679 3718 3718 3718 3718 3718 3718 3718 3679 3718 3718 3679 3679 3679 3679 3679 3679 3640 3640 3640 3640 3640 3640 3640 3640 3640 3640 3640 3640 3679 3679 3679 3679 3679 3679 3679 3679 3679 3679 3679 3679 3679 3679 3679 3679 3679 3679 3679 3679 3679 3679 3679 3679 3679 3679 3679 3679 3679 3679 3679 3679 3679 3718 3718 3718 3718 3718 3718 3718 3718 3718 3718 3718 3718 3718 3718 3718 3718 3718 3718 3718 3718 3718 3718 3718 3718 3718 3718 3718 3718 3759 3759 3759 3759 3718 3718 3759 3759 3759 3759 3759 3759 3800 3800 3800 3800 3759 3759 3759 3718 3718 3718 3718 3718 3759 3759 3759 3759 3800 3800 3800 3759 3718 3718 3759 3759 3759 3759 3759 3759 3759 3800 3800 3800 3800 3800 3800 3800 3800 3800 3800 3800 3800 3800 3800 3800 3800 3800 3800 3800 3800 3800 3800 3800 3800 3800 3800 3800 3800 3800 3800 3759 3800 3800 3800 3800 3800 3842 3842 3800 3800 3800 3800 3800 3800 3842 3842 3842 3842 3842 3842 3842 3842 3842 3842 3842 3842 3842 3842 3885 3842 3842 3842 3842 3842 3842 3842 3842 3842 3842 3800 3800 3800 3842 3842 3800 3800 3800 3800 3800 3800 3800 3800 3800 3800 3800 3800 3800 3800 3800 3842 3842 3842 3842 3842 3842 3842 3842 3800 3800 3800 3800 3800 3800 3800 3800 3800 3800 3800 3800 3842 3842 3800 3800 3800 3800 3800 3800 3800 3800 3800 3800 3800 3842 3842 3842 3842 3842 3842 3800 3800 3800 3800 3800 3800 3800 3800 3800 3800 3800 3800 3842 3800 3800 3800 3800 3800 3800 3800 3800 3800 3800 3800 3800 3842 3800 3800 3800 3800 3800 3800 3759 3759 3759 3759 3759 3759 3759 3759 3759 3759 3759 3759 3759 3759 3759 3759 3759 3759 3759 3759 3800 3800 3800 3800 3800 3800 3800 3800 3759 3759 3718 3759 3759 3759 3718 3718 3759 3759 3759 3759 3759 3718 3718 3718 3718 3718 3718 3718 3718 3718 3718 3718 3759 3759 3759 3759 3759 3759 3759 3759 3759 3759 3759 3759 3759 3759 3759 3759 3759 3800 3759 3800 3800 3800 3800 3800 3842 3800 3800 3800 3800 3800 3759 3759 3759 3759 3759 3759 3759 3759 3759 3718 3718 3718 3718 3718 3718 3718 3718 3718 3718 3718 3718 3718 3718 3718 3759 3800 3800 3800 3800 3800 3800 3800 3759 3759 3718 3718 3718 3718 3718 3718 3718 3718 3759 3759 3759 3718 3759 3759 3759 3759 3718 3718 3718 3759 3718 3718 3718 3718 3718 3759 3718 3718 3718 3718 3759 3759 3718 3759 3759 3718 3718 3718 3718 3718 3718 3759 3759 3759 3759 3759 3759 3759 3759 3718 3718 3718 3718 3718 3718 3759 3718 3759 3759 3759 3759 3718 3718 3679 3679 3640 3640 3602 3602 3602 3602 3602 3602 3602 3565 3565 3528 3528 3493 3493 3493 3493 3493 3493 3493 3423 3423 3390 3390 3357 3357 3357 3324 3324 3293 3293 3262 3262 3262 3293 3293 3293 3293 3262 3231 3231 3172 3172 3172 3172 3172 3143 3143
    0 0 0 0 0 0 0 0 0 0 0 0 0 0 0 0 0 0 0 0 0 0 0 0 0 0 0 0 0 0 0 0 0 0 0 0 0 0 0 0 0 0 0 0 0 0 0 0 0 0 0 0 0 0 0 0 0 0 0 0 0 0 0 0 0 0 0 0 0 0 0 0 0 0 0 0 0 0 0 0 0 0 0 0 0 0 0 0 0 0 0 0 0 0 0 0 0 0 0 0 0 0 0 2274 2274 2274 2274 2274 2289 2304 2304 2304 2304 2320 2320 0 0 0 0 3718 3718 3718 3718 3718 3718 3718 3718 3718 3718 3718 3718 3679 3679 3679 3679 3679 3679 3640 3640 3640 3640 3640 3640 3640 3640 3679 3679 3679 3679 3679 3679 3679 3679 3679 3679 3679 3679 3679 3679 3679 3679 3679 3679 3679 3679 3679 3679 3679 3679 3679 3679 3679 3679 3679 3679 3679 3679 3679 3679 3679 3679 3718 3718 3718 3718 3718 3718 3718 3718 3718 3718 3718 3718 3718 3718 3718 3718 3718 3718 3718 3718 3718 3718 3718 3718 3718 3718 3759 3718 3718 3759 3759 3759 3759 3718 3718 3759 3759 3759 3759 3759 3759 3800 3800 3800 3800 3800 3800 3759 3718 3718 3718 3718 3759 3800 3759 3800 3800 3800 3800 3800 3759 3759 3759 3759 3759 3759 3759 3759 3800 3800 3800 3800 3800 3800 3800 3800 3800 3800 3800 3800 3800 3800 3842 3842 3800 3842 3800 3800 3800 3800 3800 3800 3800 3800 3800 3800 3800 3800 3800 3800 3800 3800 3800 3800 3842 3842 3842 3842 3842 3842 3842 3842 3842 3842 3842 3842 3842 3842 3842 3842 3842 3842 3842 3842 3842 3842 3842 3885 3885 3885 3885 3842 3842 3842 3842 3842 3842 3842 3842 3800 3842 3842 3842 3842 3842 3842 3842 3842 3800 3800 3800 3800 3800 3800 3800 3800 3800 3800 3800 3842 3842 3842 3842 3842 3842 3842 3842 3800 3800 3800 3800 3800 3842 3842 3842 3842 3842 3800 3842 3842 3842 3842 3842 3800 3800 3800 3800 3800 3800 3800 3800 3800 3842 3842 3842 3842 3842 3842 3842 3842 3800 3800 3800 3800 3800 3800 3800 3800 3800 3800 3842 3842 3842 3842 3800 3800 3800 3800 3800 3800 3842 3842 3842 3842 3842 3842 3800 3800 3800 3800 3759 3759 3759 3759 3759 3759 3759 3759 3759 3759 3759 3759 3759 3759 3759 3759 3759 3800 3800 3759 3800 3800 3800 3800 3800 3800 3800 3800 3759 3759 3759 3759 3759 3759 3759 3759 3759 3759 3759 3759 3759 3759 3759 3718 3718 3718 3718 3718 3718 3718 3718 3759 3759 3759 3759 3759 3759 3759 3800 3759 3800 3800 3800 3759 3759 3759 3759 3800 3800 3800 3800 3800 3800 3800 3842 3842 3842 3842 3842 3800 3800 3800 3759 3759 3759 3759 3759 3759 3759 3800 3759 3718 3759 3759 3759 3718 3718 3718 3718 3718 3718 3718 3759 3759 3759 3759 3759 3800 3800 3800 3800 3800 3800 3759 3759 3759 3718 3718 3718 3718 3718 3718 3718 3718 3759 3759 3759 3718 3759 3759 3759 3759 3759 3718 3718 3759 3759 3718 3718 3759 3759 3759 3759 3759 3759 3759 3759 3759 3759 3759 3759 3759 3759 3759 3759 3759 3759 3759 3759 3800 3759 3759 3759 3759 3800 3759 3759 3759 3718 3759 3759 3759 3759 3759 3759 3759 3759 3718 3718 3679 3679 3640 3640 3602 3602 3602 3602 3602 3602 3602 3602 3565 3528 3528 3493 3493 3493 3493 3493 3493 3493 3423 3423 3390 3390 3357 3357 3357 3357 3357 3324 3324 3293 3262 3262 3262 3293 3293 3293 3293 3231 3231 3201 3172 3172 3172 3143 3143 3143
    0 0 0 0 0 0 0 0 0 0 0 0 0 0 0 0 0 0 0 0 0 0 0 0 0 0 0 0 0 0 0 0 0 0 0 0 0 0 0 0 0 0 0 0 0 0 0 0 0 0 0 0 0 0 0 0 0 0 0 0 0 0 0 0 0 0 0 0 0 0 0 0 0 0 0 0 0 0 0 0 0 0 0 0 0 0 0 0 0 0 0 0 0 0 0 0 0 0 0 0 0 0 0 2259 2274 2259 2274 2274 2289 2304 2304 2304 2304 2320 0 0 0 0 0 3679 3718 3718 3718 3718 3718 3718 3718 3718 3718 3718 3718 3679 3679 3679 3679 3718 3718 3679 3679 3679 3679 3679 3679 3679 3679 3679 3679 3679 3679 3679 3679 3679 3679 3679 3679 3679 3679 3679 3679 3679 3679 3679 3679 3679 3679 3679 3679 3679 3679 3679 3679 3679 3679 3679 3679 3679 3679 3679 3679 3679 3679 3718 3718 3718 3718 3718 3718 3718 3718 3718 3718 3718 3718 3718 3718 3718 3718 3718 3718 3718 3718 3718 3718 3718 3718 3718 3718 3759 3759 3759 3759 3759 3759 3759 3759 3759 3759 3759 3759 3800 3800 3800 3800 3842 3842 3800 3800 3800 3800 3759 3759 3759 3718 3759 3800 3759 3800 3800 3800 3800 3800 3800 3759 3759 3759 3759 3759 3759 3759 3800 3800 3800 3800 3800 3800 3800 3800 3800 3800 3800 3800 3800 3800 3842 3800 3800 3800 3800 3800 3800 3800 3800 3800 3800 3800 3800 3800 3800 3800 3800 3800 3800 3800 3800 3800 3842 3842 3842 3842 3842 3842 3842 3842 3842 3842 3842 3842 3842 3842 3842 3842 3842 3842 3842 3842 3842 3842 3885 3885 3930 3885 3885 3842 3842 3842 3842 3842 3842 3842 3842 3800 3800 3842 3842 3842 3842 3842 3842 3842 3842 3842 3800 3800 3800 3800 3800 3800 3800 3800 3842 3842 3842 3842 3842 3842 3842 3842 3842 3842 3842 3842 3842 3842 3842 3885 3885 3885 3885 3842 3842 3842 3842 3842 3842 3842 3842 3842 3842 3842 3842 3842 3842 3842 3842 3842 3885 3885 3842 3842 3842 3842 3842 3842 3800 3800 3800 3800 3842 3842 3842 3842 3842 3842 3842 3842 3842 3842 3842 3842 3842 3842 3842 3842 3842 3885 3885 3842 3842 3800 3800 3800 3800 3800 3800 3800 3800 3800 3800 3800 3800 3759 3800 3800 3759 3759 3759 3759 3800 3800 3800 3800 3800 3800 3842 3842 3800 3800 3800 3800 3800 3759 3759 3759 3759 3759 3759 3759 3759 3759 3759 3759 3759 3759 3759 3759 3718 3718 3718 3718 3718 3718 3718 3759 3759 3759 3759 3759 3759 3800 3800 3759 3800 3800 3800 3759 3759 3759 3759 3800 3800 3800 3800 3842 3800 3842 3842 3842 3842 3842 3842 3800 3800 3800 3800 3800 3759 3759 3759 3759 3759 3800 3759 3759 3759 3759 3759 3759 3759 3759 3759 3759 3718 3759 3759 3759 3759 3759 3800 3800 3800 3800 3800 3800 3800 3800 3759 3759 3759 3718 3718 3759 3718 3718 3759 3759 3759 3800 3800 3759 3800 3800 3800 3759 3759 3759 3759 3800 3800 3759 3759 3759 3759 3800 3759 3759 3759 3759 3800 3759 3759 3759 3800 3759 3759 3759 3759 3759 3759 3759 3800 3800 3800 3759 3759 3800 3800 3759 3759 3759 3718 3759 3759 3759 3759 3759 3759 3800 3800 3759 3759 3679 3679 3640 3640 3602 3602 3602 3602 3602 3602 3602 3602 3602 3528 3528 3493 3493 3493 3528 3528 3493 3493 3458 3458 3390 3390 3357 3357 3324 3324 3324 3324 3293 3262 3262 3262 3262 3293 3293 3293 3293 3262 3262 3172 3172 3172 3172 3143 3143 3143
    0 0 0 0 0 0 0 0 0 0 0 0 0 0 0 0 0 0 0 0 0 0 0 0 0 0 0 0 0 0 0 0 0 0 0 0 0 0 0 0 0 0 0 0 0 0 0 0 0 0 0 0 0 0 0 0 0 0 0 0 0 0 0 0 0 0 0 0 0 0 0 0 0 0 0 0 0 0 0 0 0 0 0 0 0 0 0 0 0 0 0 0 0 0 0 0 0 0 0 0 0 0 0 2259 2274 2274 2289 2289 2289 2304 2304 2304 2304 2304 0 0 0 0 0 0 3718 3718 3718 3718 3718 3718 3718 3718 3718 3679 3679 3679 3679 3679 3679 3718 3718 3679 3679 3679 3679 3679 3679 3679 3679 3679 3679 3679 3679 3679 3679 3679 3679 3679 3679 3679 3679 3679 3679 3679 3679 3679 3679 3679 3679 3679 3679 3679 3679 3679 3679 3679 3679 3679 3679 3679 3679 3679 3679 3679 3679 3718 3718 3718 3718 3718 3718 3759 3759 3718 3718 3718 3718 3718 3718 3718 3718 3718 3718 3718 3718 3759 3718 3718 3718 3718 3718 3759 3759 3759 3759 3759 3759 3759 3759 3759 3759 3800 3759 3800 3800 3800 3800 3800 3842 3842 3842 3842 3842 3800 3759 3759 3759 3759 3800 3759 3800 3800 3800 3800 3800 3800 3800 3800 3800 3800 3800 3800 3800 3800 3800 3800 3800 3800 3800 3800 3800 3800 3800 3800 3800 3800 3842 3842 3842 3800 3842 3800 3842 3800 3800 3800 3800 3800 3800 3842 3842 3800 3800 3800 3842 3842 3842 3842 3842 3842 3842 3842 3842 3842 3842 3842 3842 3842 3842 3842 3842 3842 3842 3842 3842 3842 3842 3842 3885 3885 3885 3885 3885 3930 3885 3885 3842 3885 3885 3885 3842 3842 3842 3842 3842 3842 3842 3842 3842 3842 3842 3842 3885 3842 3842 3842 3842 3800 3800 3800 3800 3800 3842 3842 3842 3842 3842 3842 3842 3842 3842 3842 3842 3842 3885 3885 3885 3885 3885 3885 3885 3885 3885 3885 3885 3885 3885 3842 3842 3842 3842 3842 3842 3842 3842 3842 3842 3885 3885 3885 3885 3885 3885 3842 3885 3842 3842 3842 3842 3842 3842 3842 3842 3842 3842 3885 3885 3842 3885 3842 3842 3842 3842 3842 3842 3885 3885 3885 3885 3885 3842 3842 3842 3842 3842 3800 3800 3800 3800 3800 3800 3800 3800 3800 3800 3800 3800 3800 3800 3800 3800 3800 3800 3800 3800 3800 3842 3842 3842 3800 3800 3800 3800 3800 3759 3759 3759 3759 3759 3759 3759 3759 3759 3800 3800 3759 3759 3759 3759 3759 3759 3718 3718 3718 3718 3759 3759 3759 3759 3759 3759 3800 3800 3800 3800 3800 3800 3800 3800 3800 3800 3800 3800 3800 3842 3842 3842 3842 3842 3842 3842 3842 3842 3842 3800 3800 3800 3800 3800 3800 3759 3759 3800 3800 3800 3759 3759 3759 3759 3759 3759 3759 3759 3759 3759 3759 3759 3759 3800 3800 3759 3800 3800 3800 3800 3800 3759 3759 3759 3759 3759 3759 3759 3718 3759 3718 3759 3759 3759 3800 3800 3800 3759 3800 3800 3800 3800 3800 3800 3800 3800 3800 3800 3800 3800 3759 3800 3759 3759 3800 3800 3800 3800 3800 3800 3800 3800 3800 3759 3759 3759 3759 3759 3759 3800 3800 3759 3759 3800 3800 3800 3759 3759 3759 3759 3759 3759 3759 3759 3759 3800 3800 3759 3759 3718 3679 3640 3640 3602 3602 3602 3602 3602 3602 3640 3602 3602 3565 3528 3493 3493 3493 3528 3493 3493 3493 3458 3458 3390 3390 3357 3357 3324 3324 3324 3324 3324 3293 3293 3262 3262 3293 3262 3262 3262 3262 3231 3172 3172 3172 3172 3143 3143 3143
    0 0 0 0 0 0 0 0 0 0 0 0 0 0 0 0 0 0 0 0 0 0 0 0 0 0 0 0 0 0 0 0 0 0 0 0 0 0 0 0 0 0 0 0 0 0 0 0 0 0 0 0 0 0 0 0 0 0 0 0 0 0 0 0 0 0 0 0 0 0 0 0 0 0 0 0 0 0 0 0 0 0 0 0 0 0 0 0 0 0 0 0 0 0 0 0 0 0 0 0 0 0 0 2259 2274 2274 2274 2274 2289 2304 2304 2304 2304 0 0 0 0 0 0 0 3718 3718 3718 3718 3718 3718 3718 3718 3718 3679 3679 3679 3679 3679 3718 3679 3679 3679 3679 3679 3679 3679 3679 3679 3679 3679 3679 3679 3679 3679 3679 3679 3679 3679 3679 3679 3679 3679 3679 3679 3679 3679 3679 3679 3679 3679 3679 3679 3679 3679 3679 3679 3679 3679 3679 3718 3679 3679 3718 3718 3718 3718 3718 3718 3718 3718 3718 3759 3759 3718 3718 3718 3718 3718 3759 3759 3759 3759 3759 3759 3718 3759 3759 3718 3718 3718 3718 3759 3759 3759 3759 3759 3759 3759 3759 3759 3759 3800 3800 3800 3800 3800 3800 3842 3842 3842 3842 3842 3842 3800 3759 3800 3759 3759 3800 3800 3800 3800 3800 3800 3800 3800 3800 3800 3800 3800 3800 3800 3800 3800 3800 3800 3842 3842 3842 3800 3800 3800 3800 3800 3800 3800 3800 3842 3842 3800 3842 3842 3842 3800 3800 3800 3842 3842 3842 3842 3842 3842 3842 3842 3842 3842 3842 3842 3842 3842 3842 3842 3842 3842 3842 3842 3842 3842 3842 3885 3842 3842 3842 3842 3842 3842 3885 3842 3885 3885 3885 3885 3885 3930 3885 3885 3885 3885 3885 3885 3885 3842 3885 3885 3842 3842 3842 3842 3842 3842 3842 3842 3885 3842 3842 3842 3842 3842 3842 3842 3800 3842 3842 3885 3885 3842 3842 3885 3885 3842 3842 3842 3842 3885 3885 3885 3885 3885 3885 3930 3885 3930 3885 3885 3885 3885 3885 3885 3885 3842 3842 3885 3842 3885 3885 3885 3885 3885 3885 3885 3885 3885 3885 3885 3885 3885 3885 3842 3842 3842 3842 3842 3842 3842 3885 3885 3885 3885 3885 3885 3885 3885 3885 3885 3885 3885 3885 3885 3885 3885 3842 3842 3842 3842 3842 3800 3842 3842 3842 3842 3842 3842 3842 3842 3842 3842 3800 3800 3800 3800 3800 3800 3842 3842 3842 3842 3842 3842 3842 3842 3800 3800 3800 3800 3800 3800 3800 3800 3800 3800 3800 3800 3800 3800 3800 3800 3800 3800 3759 3759 3759 3759 3718 3759 3718 3759 3759 3759 3759 3800 3800 3800 3842 3842 3800 3842 3842 3800 3800 3800 3800 3800 3842 3842 3842 3885 3885 3842 3842 3842 3842 3842 3842 3842 3800 3800 3800 3842 3800 3800 3800 3800 3800 3842 3800 3800 3759 3759 3759 3759 3759 3759 3759 3800 3759 3759 3759 3800 3800 3800 3800 3800 3800 3842 3800 3800 3800 3800 3759 3759 3759 3759 3759 3759 3800 3759 3800 3800 3800 3800 3842 3842 3800 3800 3800 3800 3800 3800 3800 3800 3842 3800 3800 3800 3800 3800 3800 3800 3800 3800 3800 3842 3842 3842 3800 3842 3800 3800 3800 3800 3800 3800 3800 3800 3842 3800 3800 3800 3800 3800 3800 3800 3759 3759 3800 3759 3759 3759 3759 3759 3800 3800 3759 3800 3718 3718 3679 3679 3602 3602 3602 3602 3602 3602 3602 3602 3602 3565 3565 3528 3528 3528 3528 3528 3493 3493 3458 3423 3357 3357 3324 3324 3324 3324 3324 3324 3293 3293 3293 3262 3262 3262 3262 3262 3262 3231 3231 3201 3201 3172 3172 3143 3143 3143
    0 0 0 0 0 0 0 0 0 0 0 0 0 0 0 0 0 0 0 0 0 0 0 0 0 0 0 0 0 0 0 0 0 0 0 0 0 0 0 0 0 0 0 0 0 0 0 0 0 0 0 0 0 0 0 0 0 0 0 0 0 0 0 0 0 0 0 0 0 0 0 0 0 0 0 0 0 0 0 0 0 0 0 0 0 0 0 0 0 0 0 0 0 0 0 0 0 0 0 0 0 0 2259 2259 2274 2274 2274 2274 2274 2289 2289 2304 2289 0 0 0 0 0 0 0 3718 3718 3718 3718 3679 3679 3679 3679 3679 3679 3718 3718 3718 3718 3718 3718 3718 3679 3679 3679 3679 3679 3679 3679 3679 3679 3679 3679 3679 3679 3679 3679 3679 3679 3679 3679 3679 3679 3679 3679 3679 3679 3679 3679 3679 3679 3679 3679 3679 3679 3679 3679 3679 3679 3679 3718 3679 3718 3718 3718 3718 3718 3718 3718 3718 3718 3718 3759 3759 3759 3759 3759 3759 3759 3759 3759 3759 3759 3759 3759 3759 3759 3759 3759 3718 3759 3718 3759 3759 3759 3759 3759 3759 3759 3759 3759 3759 3800 3800 3800 3800 3800 3842 3842 3842 3842 3842 3842 3842 3800 3800 3800 3759 3800 3800 3800 3800 3800 3800 3800 3800 3800 3800 3800 3800 3800 3800 3800 3800 3800 3800 3842 3842 3842 3800 3800 3800 3800 3800 3800 3800 3800 3842 3842 3842 3842 3842 3842 3842 3842 3842 3842 3842 3842 3842 3842 3885 3842 3842 3842 3842 3842 3842 3842 3842 3842 3842 3842 3842 3842 3842 3842 3842 3842 3842 3885 3885 3885 3885 3885 3842 3885 3885 3885 3885 3885 3930 3885 3930 3930 3930 3885 3885 3885 3885 3885 3885 3842 3885 3885 3842 3885 3842 3842 3842 3885 3885 3885 3885 3885 3885 3885 3885 3842 3885 3842 3842 3842 3842 3885 3885 3842 3842 3885 3885 3885 3885 3885 3885 3885 3885 3885 3885 3885 3930 3930 3930 3930 3885 3885 3885 3885 3885 3885 3885 3885 3885 3885 3885 3930 3930 3930 3930 3885 3885 3930 3930 3885 3885 3885 3885 3885 3885 3885 3885 3885 3885 3885 3842 3885 3885 3885 3885 3885 3885 3885 3885 3885 3885 3885 3885 3885 3885 3885 3885 3885 3842 3885 3885 3842 3885 3842 3842 3842 3842 3842 3842 3842 3842 3842 3842 3842 3842 3842 3842 3842 3842 3842 3885 3885 3885 3885 3885 3885 3842 3842 3842 3842 3800 3800 3800 3800 3800 3800 3800 3800 3800 3842 3800 3842 3842 3842 3842 3800 3800 3800 3800 3759 3718 3759 3759 3759 3800 3759 3800 3842 3842 3842 3842 3842 3842 3842 3842 3842 3842 3842 3842 3842 3842 3842 3842 3885 3885 3842 3842 3842 3842 3842 3800 3800 3800 3800 3842 3842 3800 3800 3800 3800 3842 3842 3842 3800 3800 3800 3800 3800 3800 3800 3800 3800 3800 3800 3800 3800 3800 3842 3842 3842 3842 3842 3842 3842 3842 3842 3800 3759 3759 3759 3759 3759 3800 3759 3800 3800 3842 3842 3842 3842 3800 3842 3800 3800 3800 3842 3800 3800 3842 3842 3800 3842 3842 3800 3800 3800 3842 3842 3842 3842 3842 3842 3842 3842 3800 3800 3800 3800 3800 3800 3800 3800 3842 3842 3842 3842 3842 3842 3842 3842 3800 3800 3800 3759 3759 3759 3759 3800 3800 3800 3800 3800 3759 3718 3679 3679 3602 3565 3602 3565 3602 3602 3602 3602 3602 3602 3602 3565 3528 3528 3528 3493 3493 3458 3458 3423 3357 3357 3324 3324 3324 3324 3324 3324 3324 3293 3293 3262 3262 3262 3231 3231 3231 3231 3231 3201 3172 3172 3172 3143 3143 3143
    0 0 0 0 0 0 0 0 0 0 0 0 0 0 0 0 0 0 0 0 0 0 0 0 0 0 0 0 0 0 0 0 0 0 0 0 0 0 0 0 0 0 0 0 0 0 0 0 0 0 0 0 0 0 0 0 0 0 0 0 0 0 0 0 0 0 0 0 0 0 0 0 0 0 0 0 0 0 0 0 0 0 0 0 0 0 0 0 0 0 0 0 0 0 0 0 0 0 0 0 0 0 2274 2274 2274 2274 2274 2274 2274 2289 2289 2289 2289 2304 0 0 0 0 0 0 3759 3718 3718 3718 3718 3718 3679 3679 3718 3718 3718 3718 3718 3718 3718 3718 3718 3679 3679 3679 3679 3679 3679 3679 3679 3679 3679 3679 3679 3679 3679 3679 3679 3679 3679 3679 3679 3679 3679 3679 3679 3679 3679 3679 3679 3679 3679 3679 3679 3679 3679 3679 3679 3679 3679 3718 3679 3718 3718 3718 3718 3718 3718 3718 3718 3718 3718 3759 3759 3759 3759 3759 3759 3759 3759 3759 3759 3759 3759 3800 3759 3759 3759 3759 3759 3759 3759 3759 3759 3759 3759 3759 3759 3759 3759 3800 3759 3800 3800 3800 3800 3800 3842 3842 3842 3842 3842 3842 3842 3800 3800 3800 3800 3800 3800 3800 3800 3800 3800 3800 3800 3800 3800 3800 3800 3800 3800 3800 3800 3800 3800 3842 3842 3842 3800 3800 3800 3800 3800 3800 3800 3800 3842 3842 3842 3842 3842 3842 3842 3842 3842 3842 3842 3842 3842 3885 3885 3842 3842 3842 3842 3842 3842 3842 3842 3842 3842 3842 3885 3842 3842 3842 3885 3885 3842 3885 3885 3885 3885 3842 3842 3885 3885 3885 3885 3930 3930 3930 3930 3930 3930 3930 3885 3885 3885 3930 3885 3842 3885 3885 3842 3842 3842 3842 3842 3885 3885 3885 3885 3885 3885 3885 3885 3885 3885 3885 3842 3885 3885 3885 3885 3885 3842 3885 3885 3885 3885 3885 3885 3885 3930 3930 3930 3885 3930 3930 3930 3930 3885 3885 3885 3885 3885 3885 3930 3930 3930 3930 3930 3930 3930 3930 3930 3930 3930 3930 3930 3930 3930 3930 3930 3930 3930 3930 3885 3930 3885 3930 3885 3885 3930 3930 3930 3930 3930 3930 3930 3930 3930 3885 3885 3930 3930 3885 3885 3885 3885 3930 3885 3885 3930 3885 3885 3885 3885 3885 3885 3885 3885 3885 3885 3885 3885 3842 3842 3842 3842 3842 3885 3885 3885 3885 3885 3885 3885 3842 3842 3842 3842 3842 3842 3842 3842 3842 3842 3842 3842 3842 3842 3842 3842 3842 3842 3842 3842 3842 3800 3800 3759 3759 3759 3759 3800 3800 3800 3842 3842 3842 3842 3842 3842 3842 3842 3800 3800 3800 3842 3842 3842 3842 3842 3885 3885 3842 3842 3842 3842 3842 3842 3800 3800 3800 3842 3842 3842 3800 3842 3842 3842 3842 3842 3842 3800 3842 3800 3800 3800 3800 3842 3842 3842 3800 3842 3842 3842 3842 3842 3842 3800 3842 3842 3842 3842 3842 3842 3800 3800 3842 3800 3800 3800 3800 3842 3842 3842 3842 3842 3842 3842 3842 3842 3842 3842 3842 3842 3842 3842 3842 3842 3842 3842 3800 3842 3842 3842 3842 3842 3885 3885 3885 3842 3842 3842 3842 3842 3842 3842 3842 3842 3842 3842 3842 3842 3842 3842 3842 3842 3842 3842 3800 3800 3759 3800 3800 3800 3800 3800 3800 3800 3800 3759 3759 3718 3679 3602 3565 3602 3602 3602 3602 3602 3565 3602 3602 3640 3528 3493 3493 3493 3493 3458 3458 3423 3423 3390 3357 3324 3324 3324 3324 3324 3324 3324 3293 3262 3262 3262 3231 3231 3231 3231 3231 3231 3201 3172 3172 3172 3143 3143 3143
    0 0 0 0 0 0 0 0 0 0 0 0 0 0 0 0 0 0 0 0 0 0 0 0 0 0 0 0 0 0 0 0 0 0 0 0 0 0 0 0 0 0 0 0 0 0 0 0 0 0 0 0 0 0 0 0 0 0 0 0 0 0 0 0 0 0 0 0 0 0 0 0 0 0 0 0 0 0 0 0 0 0 0 0 0 0 0 0 0 0 0 0 0 0 0 0 0 0 0 0 0 2289 2274 2274 2274 2274 2274 2274 2274 2289 2289 2304 2304 2320 0 0 0 0 0 0 3759 3718 3718 3718 3718 3718 3679 3679 3679 3718 3718 3718 3718 3718 3718 3718 3718 3679 3679 3679 3679 3679 3679 3679 3679 3679 3679 3679 3679 3679 3679 3679 3679 3679 3679 3679 3679 3679 3679 3679 3679 3679 3679 3679 3679 3679 3679 3679 3718 3679 3679 3679 3679 3679 3718 3718 3718 3718 3718 3718 3718 3718 3718 3718 3718 3718 3759 3759 3759 3759 3759 3759 3759 3759 3759 3759 3759 3759 3759 3800 3759 3759 3759 3718 3718 3759 3718 3718 3759 3759 3759 3759 3759 3759 3759 3759 3759 3800 3800 3800 3800 3800 3842 3842 3842 3842 3842 3842 3842 3800 3759 3800 3800 3800 3800 3800 3800 3800 3800 3800 3800 3800 3800 3800 3800 3800 3800 3800 3800 3842 3842 3842 3842 3842 3800 3800 3800 3800 3800 3800 3842 3842 3842 3842 3842 3842 3842 3842 3842 3842 3842 3842 3842 3842 3842 3842 3885 3885 3842 3885 3885 3885 3885 3885 3842 3842 3885 3885 3885 3885 3885 3885 3885 3885 3885 3885 3885 3885 3885 3885 3885 3885 3885 3885 3930 3930 3930 3930 3930 3930 3930 3930 3885 3885 3885 3930 3885 3885 3885 3885 3842 3885 3842 3842 3842 3885 3885 3885 3885 3885 3885 3885 3885 3885 3930 3885 3885 3885 3885 3885 3885 3885 3885 3885 3885 3885 3885 3885 3885 3930 3930 3930 3930 3930 3930 3930 3930 3930 3930 3930 3930 3885 3885 3885 3930 3930 3930 3930 3930 3930 3930 3930 3930 3930 3930 3930 3930 3930 3930 3930 3930 3930 3930 3930 3930 3930 3930 3930 3930 3930 3930 3930 3930 3930 3930 3930 3930 3930 3930 3930 3885 3930 3930 3885 3885 3885 3885 3930 3930 3885 3930 3885 3885 3885 3885 3885 3885 3885 3885 3885 3885 3885 3885 3885 3885 3885 3885 3885 3885 3885 3885 3885 3885 3885 3885 3885 3842 3842 3842 3842 3842 3842 3842 3885 3885 3842 3842 3842 3842 3842 3842 3842 3842 3842 3842 3842 3842 3800 3759 3759 3759 3800 3800 3800 3842 3842 3842 3842 3842 3842 3800 3800 3842 3800 3842 3842 3842 3842 3842 3842 3842 3842 3842 3842 3842 3842 3842 3842 3842 3842 3800 3842 3842 3842 3842 3842 3842 3842 3885 3885 3842 3842 3800 3842 3800 3800 3842 3800 3842 3842 3842 3842 3842 3842 3842 3842 3842 3800 3800 3800 3800 3842 3842 3842 3842 3800 3842 3842 3800 3800 3800 3800 3842 3842 3842 3842 3842 3842 3842 3842 3842 3842 3842 3842 3842 3842 3842 3842 3842 3842 3842 3800 3842 3842 3842 3842 3885 3885 3885 3885 3885 3885 3842 3842 3842 3842 3842 3842 3842 3842 3842 3842 3842 3842 3842 3842 3842 3885 3842 3842 3842 3800 3800 3800 3800 3800 3800 3800 3800 3800 3800 3759 3718 3679 3640 3565 3602 3565 3602 3602 3565 3565 3565 3565 3565 3528 3493 3493 3493 3493 3458 3458 3423 3390 3390 3357 3324 3324 3324 3324 3324 3324 3324 3293 3262 3262 3231 3231 3231 3231 3231 3231 3231 3231 3201 3172 3172 3143 3143 3143
    0 0 0 0 0 0 0 0 0 0 0 0 0 0 0 0 0 0 0 0 0 0 0 0 0 0 0 0 0 0 0 0 0 0 0 0 0 0 0 0 0 0 0 0 0 0 0 0 0 0 0 0 0 0 0 0 0 0 0 0 0 0 0 0 0 0 0 0 0 0 0 0 0 0 0 0 0 0 0 0 0 0 0 0 0 0 0 0 0 0 0 0 0 0 0 0 0 0 0 0 0 2274 2274 2274 2274 2274 2274 2274 2274 2289 2289 2304 2304 2320 0 0 0 0 0 0 3718 3718 3718 3718 3718 3718 3679 3679 3679 3718 3718 3718 3718 3718 3718 3718 3718 3679 3679 3679 3679 3679 3679 3679 3679 3679 3679 3679 3679 3679 3679 3679 3679 3679 3679 3718 3718 3679 3679 3679 3679 3718 3718 3718 3679 3718 3718 3679 3679 3679 3679 3679 3679 3718 3718 3718 3718 3718 3718 3718 3718 3718 3718 3718 3718 3718 3718 3759 3759 3759 3759 3759 3759 3759 3759 3759 3759 3759 3759 3800 3759 3759 3759 3718 3718 3759 3759 3759 3759 3759 3759 3759 3759 3800 3800 3800 3759 3800 3800 3800 3800 3800 3800 3800 3842 3842 3842 3842 3842 3800 3800 3800 3800 3800 3800 3800 3800 3800 3800 3800 3800 3800 3800 3800 3800 3800 3800 3800 3800 3842 3842 3842 3842 3842 3800 3800 3800 3842 3800 3842 3842 3842 3842 3842 3842 3842 3885 3842 3842 3842 3842 3842 3842 3842 3885 3885 3885 3885 3885 3885 3885 3885 3885 3885 3842 3842 3885 3842 3885 3885 3885 3885 3930 3930 3885 3885 3885 3885 3885 3885 3885 3885 3885 3885 3930 3930 3930 3930 3930 3930 3930 3930 3930 3930 3930 3930 3930 3885 3885 3885 3885 3885 3842 3885 3885 3885 3885 3885 3930 3885 3885 3885 3885 3885 3930 3930 3885 3930 3930 3930 3930 3930 3930 3930 3930 3930 3930 3930 3930 3930 3930 3930 3930 3930 3930 3930 3930 3930 3930 3930 3930 3930 3930 3930 3930 3930 3930 3930 3930 3975 3975 3930 3930 3930 3930 3930 3930 3930 3930 3930 3930 3930 3930 3930 3930 3930 3930 3930 3930 3930 3930 3930 3930 3930 3930 3930 3930 3930 3930 3930 3930 3930 3930 3930 3885 3930 3930 3930 3930 3930 3930 3885 3885 3885 3885 3885 3885 3885 3885 3885 3885 3885 3885 3885 3885 3885 3885 3885 3885 3885 3885 3885 3885 3885 3885 3842 3842 3842 3842 3842 3842 3842 3885 3885 3885 3885 3885 3885 3885 3842 3885 3842 3842 3842 3842 3842 3842 3842 3842 3842 3800 3842 3842 3842 3842 3842 3842 3842 3842 3842 3842 3842 3842 3842 3842 3885 3885 3842 3885 3885 3885 3885 3885 3885 3842 3842 3885 3885 3842 3842 3842 3842 3885 3885 3885 3842 3885 3885 3885 3885 3885 3885 3842 3842 3842 3842 3842 3842 3842 3842 3842 3842 3842 3842 3842 3842 3842 3842 3800 3800 3800 3842 3842 3885 3885 3842 3842 3842 3842 3842 3842 3842 3842 3842 3842 3842 3842 3842 3842 3842 3842 3842 3842 3842 3885 3842 3842 3885 3842 3842 3842 3842 3842 3842 3842 3842 3885 3885 3885 3885 3885 3885 3842 3885 3842 3842 3842 3842 3842 3842 3842 3842 3842 3842 3842 3842 3842 3885 3842 3842 3842 3800 3800 3800 3800 3800 3800 3800 3800 3800 3800 3759 3718 3718 3679 3602 3602 3602 3602 3602 3565 3565 3565 3565 3528 3493 3493 3493 3493 3458 3423 3423 3423 3390 3390 3357 3357 3357 3357 3357 3357 3357 3324 3293 3262 3231 3231 3201 3201 3231 3231 3231 3231 3231 3201 3201 3172 3143 3143 3143
    0 0 0 0 0 0 0 0 0 0 0 0 0 0 0 0 0 0 0 0 0 0 0 0 0 0 0 0 0 0 0 0 0 0 0 0 0 0 0 0 0 0 0 0 0 0 0 0 0 0 0 0 0 0 0 0 0 0 0 0 0 0 0 0 0 0 0 0 0 0 0 0 0 0 0 0 0 0 0 0 0 0 0 0 0 0 0 0 0 0 0 0 0 0 0 0 0 0 0 0 0 2274 2274 2274 2274 2274 2274 2274 2274 2289 2289 2304 2304 2335 0 0 0 0 0 0 3718 3718 3718 3718 3718 3718 3679 3679 3679 3718 3718 3718 3718 3718 3718 3718 3718 3679 3679 3679 3679 3679 3679 3679 3679 3679 3679 3679 3679 3679 3679 3718 3718 3718 3718 3718 3718 3679 3679 3679 3679 3718 3718 3718 3718 3718 3718 3718 3718 3679 3679 3679 3679 3718 3718 3718 3718 3718 3718 3718 3718 3718 3718 3718 3718 3718 3718 3759 3759 3718 3759 3759 3759 3759 3759 3759 3759 3759 3759 3800 3759 3759 3759 3718 3718 3759 3759 3759 3800 3800 3800 3800 3800 3800 3800 3800 3759 3800 3800 3800 3800 3800 3800 3800 3800 3842 3842 3842 3842 3800 3800 3800 3800 3800 3800 3800 3800 3800 3800 3800 3800 3800 3800 3800 3800 3800 3800 3800 3800 3842 3842 3842 3842 3842 3800 3800 3800 3842 3800 3842 3842 3842 3842 3842 3842 3842 3885 3842 3842 3842 3842 3842 3842 3842 3885 3885 3885 3885 3885 3885 3885 3885 3885 3885 3842 3842 3885 3885 3885 3842 3842 3930 3930 3930 3885 3930 3885 3885 3885 3885 3885 3885 3885 3885 3930 3930 3930 3930 3930 3930 3930 3930 3930 3930 3930 3930 3930 3885 3930 3930 3885 3885 3885 3842 3842 3885 3885 3885 3885 3885 3885 3885 3885 3885 3930 3930 3930 3930 3930 3930 3930 3930 3930 3930 3930 3930 3930 3930 3930 3930 3930 3930 3930 3930 3930 3930 3930 3930 3930 3930 3930 3930 3930 3930 3930 3930 3930 3930 3930 3975 3975 3930 3930 3930 3930 3930 3930 3930 3930 3930 3930 3930 3930 3930 3930 3930 3930 3930 3930 3930 3930 3930 3930 3930 3975 3930 3930 3930 3930 3930 3930 3930 3930 3930 3930 3930 3930 3930 3930 3930 3930 3885 3885 3885 3885 3885 3885 3885 3885 3885 3885 3885 3885 3885 3885 3885 3885 3885 3885 3930 3885 3885 3885 3885 3885 3885 3842 3842 3842 3842 3842 3885 3885 3885 3885 3885 3885 3885 3885 3885 3885 3885 3885 3885 3885 3885 3885 3885 3842 3842 3842 3842 3842 3842 3842 3842 3842 3842 3842 3842 3842 3842 3842 3842 3885 3885 3885 3885 3885 3885 3885 3885 3885 3885 3885 3885 3885 3885 3842 3842 3842 3842 3885 3885 3885 3885 3885 3885 3885 3885 3885 3885 3842 3842 3842 3842 3842 3842 3842 3842 3842 3842 3885 3842 3842 3842 3842 3842 3842 3842 3842 3842 3842 3885 3885 3885 3885 3885 3842 3842 3842 3842 3842 3842 3842 3842 3842 3842 3842 3842 3842 3842 3842 3885 3885 3885 3885 3885 3885 3842 3842 3842 3842 3842 3842 3842 3885 3885 3885 3885 3885 3885 3885 3885 3885 3885 3842 3842 3885 3842 3842 3842 3842 3842 3842 3842 3842 3885 3842 3842 3842 3800 3800 3800 3800 3800 3800 3800 3800 3800 3759 3759 3718 3718 3640 3602 3602 3565 3602 3565 3528 3528 3565 3528 3493 3528 3493 3493 3493 3458 3423 3423 3423 3390 3390 3390 3357 3357 3357 3357 3357 3357 3324 3293 3293 3262 3231 3231 3231 3231 3231 3231 3231 3231 3201 3201 3172 3143 3143 3143
    0 0 0 0 0 0 0 0 0 0 0 0 0 0 0 0 0 0 0 0 0 0 0 0 0 0 0 0 0 0 0 0 0 0 0 0 0 0 0 0 0 0 0 0 0 0 0 0 0 0 0 0 0 0 0 0 0 0 0 0 0 0 0 0 0 0 0 0 0 0 0 0 0 0 0 0 0 0 0 0 0 0 0 0 0 0 0 0 0 0 0 0 0 0 0 0 0 0 0 0 2320 2274 2274 2274 2274 2274 2274 2274 2274 2289 2289 2304 2304 2335 0 0 0 0 0 0 3718 3718 3718 3718 3718 3718 3718 3679 3679 3718 3718 3718 3718 3718 3718 3718 3718 3679 3679 3679 3679 3679 3679 3679 3679 3679 3679 3679 3679 3679 3679 3718 3718 3718 3718 3718 3718 3679 3679 3679 3679 3718 3718 3718 3718 3718 3718 3718 3679 3679 3679 3679 3679 3718 3718 3718 3718 3718 3718 3718 3718 3718 3718 3718 3718 3718 3718 3759 3759 3718 3759 3759 3759 3759 3759 3759 3759 3759 3759 3759 3759 3759 3759 3718 3718 3759 3759 3759 3800 3800 3800 3800 3800 3800 3800 3800 3759 3759 3759 3759 3759 3800 3800 3800 3800 3842 3842 3842 3842 3800 3800 3800 3800 3800 3800 3800 3800 3800 3800 3800 3800 3800 3800 3800 3800 3800 3800 3800 3800 3800 3842 3800 3842 3800 3800 3800 3800 3800 3800 3842 3842 3842 3842 3842 3885 3842 3885 3842 3842 3842 3842 3842 3885 3842 3885 3885 3930 3930 3885 3885 3885 3885 3885 3885 3842 3842 3885 3885 3885 3885 3842 3885 3930 3930 3885 3885 3885 3885 3885 3885 3885 3885 3930 3885 3930 3930 3930 3930 3930 3930 3930 3930 3930 3930 3885 3885 3885 3930 3930 3930 3885 3885 3885 3885 3885 3885 3885 3885 3885 3885 3885 3885 3885 3885 3930 3930 3930 3930 3930 3930 3930 3930 3930 3930 3930 3930 3930 3930 3930 3930 3930 3930 3930 3930 3930 3975 3975 3975 3975 3975 3975 3975 3930 3975 3975 3975 3975 3975 3975 3975 3975 3930 3930 3930 3930 3930 3930 3930 3930 3930 3930 3930 3930 3930 3930 3930 3930 3975 3930 3975 3930 3975 3975 3975 3975 3975 3930 3930 3975 3930 3930 3930 3930 3930 3930 3930 3930 3930 3930 3930 3930 3885 3885 3885 3885 3885 3885 3885 3885 3885 3885 3885 3885 3885 3885 3885 3930 3930 3930 3930 3930 3930 3930 3930 3885 3885 3885 3885 3885 3885 3885 3885 3885 3885 3885 3885 3885 3885 3885 3885 3885 3885 3885 3885 3885 3885 3885 3885 3885 3885 3885 3885 3885 3885 3842 3885 3842 3842 3842 3842 3842 3842 3885 3842 3885 3885 3885 3885 3885 3885 3885 3885 3885 3885 3885 3885 3885 3885 3885 3885 3842 3885 3885 3885 3885 3885 3885 3885 3885 3885 3885 3885 3842 3842 3842 3842 3842 3842 3842 3842 3842 3885 3885 3842 3842 3842 3842 3842 3842 3842 3842 3842 3885 3885 3930 3930 3930 3930 3885 3885 3842 3842 3842 3842 3842 3842 3842 3842 3842 3842 3842 3885 3885 3885 3885 3885 3885 3885 3885 3885 3885 3885 3842 3842 3842 3842 3885 3885 3885 3885 3885 3885 3885 3885 3885 3885 3885 3885 3885 3885 3842 3842 3842 3842 3842 3842 3842 3842 3842 3842 3842 3800 3800 3800 3800 3800 3800 3800 3800 3759 3759 3759 3718 3718 3640 3602 3602 3565 3565 3528 3528 3528 3528 3528 3493 3528 3493 3493 3458 3423 3423 3423 3423 3390 3390 3390 3357 3390 3390 3357 3357 3357 3357 3324 3262 3262 3231 3231 3231 3231 3231 3231 3231 3231 3201 3231 3201 3172 3143 3143
    0 0 0 0 0 0 0 0 0 0 0 0 0 0 0 0 0 0 0 0 0 0 0 0 0 0 0 0 0 0 0 0 0 0 0 0 0 0 0 0 0 0 0 0 0 0 0 0 0 0 0 0 0 0 0 0 0 0 0 0 0 0 0 0 0 0 0 0 0 0 0 0 0 0 0 0 0 0 0 0 0 0 0 0 0 0 0 0 0 0 0 0 0 0 0 0 0 0 0 0 2320 2274 2274 2259 2274 2274 2274 2274 2274 2274 2289 2289 2304 2320 0 0 0 0 0 0 3718 3718 3718 3718 3718 3718 3718 3718 3718 3718 3718 3718 3718 3718 3718 3718 3718 3679 3679 3679 3679 3640 3679 3679 3679 3679 3679 3679 3679 3679 3679 3718 3718 3718 3679 3718 3718 3679 3679 3679 3679 3679 3718 3718 3718 3718 3718 3679 3679 3679 3679 3679 3679 3679 3679 3718 3718 3718 3718 3718 3718 3718 3718 3718 3718 3718 3718 3718 3718 3718 3759 3759 3759 3759 3759 3759 3759 3759 3759 3759 3759 3759 3759 3718 3759 3759 3759 3759 3800 3800 3800 3800 3800 3800 3800 3800 3759 3759 3759 3759 3759 3800 3800 3800 3800 3842 3842 3842 3842 3800 3800 3800 3800 3800 3800 3800 3800 3800 3800 3800 3800 3800 3800 3800 3800 3800 3800 3800 3800 3800 3842 3800 3800 3800 3800 3800 3800 3800 3800 3800 3842 3842 3842 3842 3842 3885 3885 3885 3842 3842 3842 3842 3885 3885 3885 3885 3930 3930 3885 3930 3885 3885 3885 3885 3842 3842 3885 3885 3885 3930 3842 3930 3930 3930 3885 3885 3885 3885 3885 3885 3885 3930 3930 3885 3930 3930 3930 3930 3930 3930 3930 3930 3930 3930 3885 3885 3930 3930 3930 3930 3885 3885 3885 3885 664 665 665 665 664 3885 3930 3930 3885 3930 3930 3930 3930 3930 3930 3930 3930 3930 3930 3930 3930 3930 3930 3930 3930 3930 3975 3930 3930 3930 3975 3975 3975 3930 3930 3975 3975 3975 3930 3975 3975 3975 3975 3975 3975 3975 3975 3975 3930 3930 3930 3930 3930 3930 3930 3930 3975 3975 3975 3975 3975 3975 3975 3975 3975 3975 3975 3975 3975 3975 3975 3930 3930 3930 3930 3930 3930 3930 3930 3930 3930 3930 3930 3930 3930 3930 3930 3885 3930 3930 3930 3885 3885 3885 3885 3885 3885 3885 3885 3885 3885 3930 3930 3930 3930 3930 3930 3930 3930 3930 3885 3885 3885 3885 3885 3885 3885 3885 3885 3885 3885 3885 3885 3885 3885 3885 3885 3885 3885 3885 3885 3885 3885 3885 3885 3885 3885 3885 3885 3885 3885 3885 3885 3885 3842 3885 3842 3885 3885 3885 3885 3885 3885 3885 3885 3885 3885 3885 3885 3885 3885 3885 3885 3885 3885 3885 3885 3885 3885 3930 3930 3930 3930 3930 3930 3930 3885 3885 3842 3842 3842 3842 3842 3885 3885 3885 3885 3885 3885 3842 3842 3842 3842 3842 3842 3842 3842 3885 3885 3930 3930 3930 3930 3930 3885 3885 3885 3842 3842 3842 3842 3842 3842 3842 3885 3842 3885 3885 3885 3885 3885 3885 3885 3885 3885 3885 3885 3885 3842 3885 3885 3885 3885 3885 3885 3885 3885 3885 3885 3885 3885 3885 3885 3885 3885 3885 3885 3885 3885 3885 3885 3885 3885 3885 3842 3842 3842 3800 3800 3800 3800 3800 3800 3800 3800 3759 3759 3759 3718 3718 3640 3602 3602 3565 3528 3528 3528 3528 3528 3493 3493 3528 3493 3493 3458 3423 3423 3423 3390 3390 3390 3390 3390 3390 3390 3390 3357 3357 3324 3293 3262 3231 3231 3201 3201 3231 3231 3231 3231 3231 3201 3231 3201 3172 3143 3143
    0 0 0 0 0 0 0 0 0 0 0 0 0 0 0 0 0 0 0 0 0 0 0 0 0 0 0 0 0 0 0 0 0 0 0 0 0 0 0 0 0 0 0 0 0 0 0 0 0 0 0 0 0 0 0 0 0 0 0 0 0 0 0 0 0 0 0 0 0 0 0 0 0 0 0 0 0 0 0 0 0 0 0 0 0 0 0 0 0 0 0 0 0 0 0 0 0 0 0 0 2320 2274 2274 2259 2274 2274 2274 2274 2274 2274 2289 2289 2289 2320 0 0 0 0 0 0 3718 3718 3718 3718 3718 3718 3718 3718 3718 3718 3718 3718 3718 3718 3718 3718 3718 3679 3679 3679 3679 3679 3679 3679 3640 3679 3679 3679 3679 3679 3679 3679 3718 3679 3679 3679 3679 3679 3679 3679 3679 3718 3718 3718 3718 3718 3718 3679 3679 3679 3679 3679 3679 3679 3679 3718 3718 3718 3718 3718 3718 3718 3718 3718 3718 3718 3718 3718 3718 3718 3718 3759 3759 3759 3759 3759 3759 3759 3759 3759 3718 3759 3759 3718 3759 3800 3800 3800 3842 3800 3800 3800 3842 3800 3800 3800 3759 3759 3759 3759 3759 3759 3800 3800 3800 3842 3842 3842 3842 3800 3800 3800 3800 3800 3800 3800 3800 3800 3800 3800 3800 3800 3800 3800 3800 3800 3800 3800 3800 3800 3800 3800 3800 3800 3800 3800 3800 3800 3800 3800 3842 3842 3842 3842 3842 3885 3885 3885 3885 3842 3842 3885 3885 3842 3885 3885 3930 3930 3885 3885 3885 3885 3885 3842 3842 3842 3885 3885 3885 3930 3842 3930 3930 3930 3885 3885 3885 3885 3885 3885 3885 3930 3930 3930 3930 3930 3930 3930 3930 3930 3930 3930 3930 3930 3930 3930 3930 3930 3930 3930 3885 3885 3930 664 664 664 664 664 665 665 665 667 667 667 668 668 668 668 669 3930 3930 3930 3930 3930 3930 3930 3930 3930 3930 3930 3975 3930 3930 3930 3930 3975 3975 3975 3975 3975 3975 3975 3975 3975 3975 3975 3975 3975 3975 3975 3975 3975 3930 3930 3930 3930 3930 3930 3930 3930 3975 3975 3975 3975 3930 3930 3975 3975 3975 3975 3975 3975 3975 3975 3975 3930 3930 3930 3930 3930 3930 3930 3930 3930 3930 3930 3930 3975 3930 3930 3930 3885 3930 3930 3885 3885 3885 3885 3885 3885 3885 3885 3885 3885 3885 3930 3930 3930 3930 3930 3930 3930 3930 3930 3930 3930 3885 3885 3885 3885 3885 3885 3885 3885 3930 3930 3930 3930 3885 3885 3885 3885 3885 3885 3885 3885 3885 3885 3885 3885 3885 3885 3885 3885 3885 3885 3885 3885 3885 3885 3885 3885 3885 3885 3885 3885 3885 3885 3885 3885 3885 3930 3930 3885 3885 3885 3885 3885 3930 3885 3885 3885 3930 3930 3930 3930 3930 3930 3930 3930 3930 3930 3885 3885 3842 3885 3885 3885 3885 3885 3885 3885 3885 3885 3885 3842 3842 3885 3885 3842 3885 3885 3885 3930 3930 3975 3975 3930 3930 3885 3885 3885 3842 3842 3842 3842 3842 3885 3885 3885 3885 3885 3885 3885 3885 3885 3885 3885 3885 3885 3885 3885 3842 3885 3885 3885 3885 3885 3885 3885 3885 3885 3885 3885 3885 3885 3885 3885 3885 3885 3885 3885 3885 3885 3885 3885 3885 3885 3842 3842 3842 3842 3800 3800 3800 3800 3800 3800 3800 3759 3759 3718 3718 3718 3640 3602 3602 3565 3565 3528 3528 3528 3528 3493 3493 3528 3493 3493 3493 3423 3423 3423 3423 3390 3390 3390 3390 3390 3390 3390 3357 3357 3324 3293 3262 3231 3231 3231 3231 3231 3231 3231 3231 3231 3201 3201 3201 3172 3172 3172
    0 0 0 0 0 0 0 0 0 0 0 0 0 0 0 0 0 0 0 0 0 0 0 0 0 0 0 0 0 0 0 0 0 0 0 0 0 0 0 0 0 0 0 0 0 0 0 0 0 0 0 0 0 0 0 0 0 0 0 0 0 0 0 0 0 0 0 0 0 0 0 0 0 0 0 0 0 0 0 0 0 0 0 0 0 0 0 0 0 0 0 0 0 0 0 0 0 0 0 0 0 2259 2259 2259 2259 2259 2274 2274 2274 2274 2274 2274 2289 2304 0 0 0 0 0 0 3718 3718 3718 3718 3718 3718 3718 3718 3718 3718 3718 3718 3718 3718 3718 3718 3718 3679 3679 3679 3679 3679 3679 3679 3640 3679 3679 3679 3679 3679 3679 3679 3679 3679 3679 3679 3679 3679 3679 3679 3679 3679 3718 3718 3718 3718 3679 3679 3679 3679 3679 3679 3679 3679 3679 3718 3718 3718 3718 3718 3718 3718 3718 3718 3718 3718 3718 3718 3718 3718 3718 3759 3759 3759 3759 3759 3759 3759 3718 3759 3718 3718 3718 3718 3759 3759 3800 3800 3842 3800 3800 3842 3800 3800 3800 3759 3759 3759 3759 3759 3759 3759 3759 3800 3800 3800 3800 3800 3800 3759 3759 3759 3800 3800 3800 3800 3800 3800 3800 3800 3800 3800 3800 3759 3759 3800 3800 3800 3800 3800 3800 3800 3800 3800 3800 3800 3800 3800 3800 3800 3842 3842 3842 3842 3842 3842 3885 3842 3842 3842 3842 3885 3885 3842 3885 3885 3885 3930 3885 3885 3885 3885 3842 3842 3842 3842 3885 3885 3930 3930 3930 3930 3930 3930 3930 3930 3885 3885 3885 3885 3885 3930 3930 3930 3930 3930 3930 3930 3930 3930 3930 3930 3930 3930 3930 3930 3930 3930 3930 3930 3885 3930 665 665 664 664 665 665 665 665 665 665 665 667 667 668 668 668 669 669 669 669 3930 3930 3930 3930 3930 3930 3930 3975 3975 3930 3975 3975 3975 3975 3975 3975 3975 3975 3975 3975 3975 3975 3975 3975 3975 3975 3975 3975 3975 3975 3930 3930 3930 3930 3930 3930 3930 3930 3975 3975 3975 3975 3975 3930 3975 3975 3975 3975 3975 3975 3975 3975 3975 3975 3975 3975 3975 3930 3975 3930 3930 3930 3930 3930 3930 3975 3930 3930 3930 3885 3930 3930 3885 3885 3885 3885 3885 3885 3885 3885 3885 3885 3885 3930 3930 3930 3930 3930 3930 3930 3930 3930 3930 3930 3885 3930 3930 3885 3930 3930 3885 3885 3930 3930 3930 3930 3885 3885 3930 3885 3885 3885 3885 3885 3885 3930 3885 3885 3885 3885 3885 3885 3885 3885 3885 3885 3885 3885 3885 3885 3885 3885 3885 3885 3885 3885 3885 3885 3885 3930 3930 3930 3930 3885 3930 3930 3930 3930 3930 3930 3930 3930 3975 3930 3930 3930 3930 3930 3930 3930 3885 3885 3885 3885 3885 3885 3885 3885 3885 3885 3885 3885 3885 3842 3842 3842 3885 3842 3885 3885 3885 3930 3930 3975 3975 3975 3930 3930 3930 3885 3885 3842 3842 3842 3842 3885 3885 3885 3885 3885 3885 3885 3885 3885 3885 3885 3885 3885 3885 3885 3885 3885 3885 3885 3885 3885 3885 3885 3885 3885 3885 3885 3885 3885 3885 3885 3930 3885 3885 3885 3885 3885 3885 3842 3842 3842 3842 3842 3842 3842 3800 3800 3800 3800 3800 3800 3759 3718 3718 3718 3718 3679 3640 3640 3602 3565 3565 3528 3528 3528 3493 3493 3493 3528 3528 3493 3493 3458 3458 3423 3423 3390 3390 3390 3390 3390 3390 3390 3357 3357 3324 3324 3293 3231 3231 3201 3231 3231 3231 3231 3231 3231 3231 3231 3201 3172 3172 3201
    0 0 0 0 0 0 0 0 0 0 0 0 0 0 0 0 0 0 0 0 0 0 0 0 0 0 0 0 0 0 0 0 0 0 0 0 0 0 0 0 0 0 0 0 0 0 0 0 0 0 0 0 0 0 0 0 0 0 0 0 0 0 0 0 0 0 0 0 0 0 0 0 0 0 0 0 0 0 0 0 0 0 0 0 0 0 0 0 0 0 0 0 0 0 0 0 0 0 0 0 0 2259 2259 2259 2259 2259 2274 2274 2274 2274 2274 2274 2289 2304 0 0 0 0 0 0 0 3718 3718 3718 3718 3718 3718 3718 3718 3718 3718 3718 3718 3718 3718 3718 3718 3679 3679 3679 3679 3679 3679 3679 3679 3679 3679 3679 3679 3679 3679 3679 3679 3679 3679 3679 3679 3679 3679 3679 3679 3679 3679 3679 3679 3679 3679 3679 3679 3679 3679 3679 3679 3679 3679 3718 3718 3718 3718 3718 3718 3718 3718 3718 3718 3718 3718 3718 3718 3718 3718 3718 3718 3718 3718 3759 3718 3718 3718 3718 3718 3718 3718 3718 3759 3759 3800 3800 3842 3800 3800 3842 3842 3800 3800 3800 3759 3800 3759 3759 3759 3759 3759 3800 3800 3800 3800 3800 3800 3759 3759 3759 3800 3800 3800 3800 3800 3800 3800 3800 3800 3800 3800 3800 3800 3800 3800 3800 3800 3800 3800 3842 3800 3800 3800 3800 3800 3800 3800 3842 3842 3842 3842 3842 3842 3885 3885 3842 3885 3842 3842 3885 3842 3842 3885 3885 3885 3885 3885 3885 3885 3885 3885 3885 3842 3842 3885 3885 3930 3930 3842 3930 3930 3930 3930 3885 3885 3885 3885 3930 3930 3930 3930 3930 3930 3930 3930 3930 3930 3930 3930 3930 3930 3930 3930 3930 3930 3930 3975 3975 3930 3930 665 665 664 664 665 664 665 665 665 665 665 667 667 668 668 668 669 669 669 669 670 670 670 670 670 670 670 669 669 669 669 669 669 3975 3975 3975 3975 3975 3975 3975 3975 3975 3975 3975 3975 3975 3975 3975 3930 3930 3930 3930 3930 3930 3930 3930 3930 3930 3975 3975 3975 3930 3930 3930 3930 3930 3930 3930 3930 3975 3975 3975 3975 3975 3975 3975 3975 3975 3975 3975 3975 3975 3975 3930 3930 3975 3930 3975 3930 3885 3930 3930 3885 3885 3885 3885 3885 3885 3885 3885 3885 3885 3885 3930 3930 3930 3930 3930 3930 3930 3930 3930 3930 3930 3930 3930 3930 3930 3930 3930 3885 3885 3930 3930 3930 3930 3930 3930 3930 3930 3930 3930 3930 3930 3930 3930 3930 3930 3930 3930 3885 3930 3885 3885 3885 3885 3885 3885 3885 3885 3885 3930 3930 3885 3930 3885 3885 3930 3885 3930 3930 3930 3930 3930 3930 3930 3930 3930 3930 3930 3930 3930 3975 3930 3930 3930 3930 3930 3930 3930 3885 3885 3885 3885 3885 3930 3885 3885 3885 3930 3885 3885 3885 3842 3842 3885 3885 3885 3885 3885 3885 3930 3975 3975 3975 3975 3975 3975 3930 3930 3885 3885 3842 3842 3842 3885 3885 3885 3885 3885 3885 3885 3885 3885 3885 3885 3885 3885 3930 3885 3885 3885 3885 3885 3885 3885 3930 3885 3930 3930 3930 3930 3930 3930 3930 3930 3930 3930 3885 3885 3885 3842 3842 3842 3842 3842 3842 3842 3842 3842 3800 3800 3800 3800 3800 3759 3759 3718 3718 3718 3718 3718 3640 3640 3640 3565 3528 3528 3528 3528 3493 3493 3493 3528 3528 3493 3493 3458 3423 3423 3390 3390 3390 3390 3390 3390 3390 3390 3357 3357 3324 3324 3293 3231 3231 3231 3231 3201 3201 3231 3231 3231 3201 3231 3201 3201 3201 3201</data></dframe>
</opencv_storage>
