<?xml version="1.0"?>
<opencv_storage>
<dframe type_id="opencv-matrix">
  <rows>35</rows>
  <cols>640</cols>
  <dt>w</dt>
  <data>
    0 0 0 0 0 0 0 0 0 0 0 0 0 0 0 0 0 0 0 0 0 0 0 0 0 0 0 0 0 0 0 0 0 0 0 0 0 0 0 0 0 0 0 0 0 0 0 0 0 0 0 0 0 0 0 0 0 0 0 0 0 0 0 0 0 0 0 0 0 0 0 0 0 0 1998 1998 2009 1998 2009 2009 2009 2009 2009 2009 2021 2021 2021 2033 2033 2033 2045 2045 2045 2057 2057 2057 2057 2057 2523 2505 2505 2505 2505 2487 2469 2469 2469 2469 2469 2469 2469 2451 2451 3423 3423 3423 3390 3390 3390 3390 3390 3423 3423 3390 3390 3390 3390 3390 3390 3357 3357 3390 3390 3390 3390 3390 3390 3423 3390 3390 3390 3390 3357 3357 3324 3324 3324 3324 3324 3324 3324 3357 3357 3357 3357 3357 3390 3357 3357 3357 3324 3324 3324 3357 3357 3324 3324 3324 3324 3324 3172 3172 3172 3143 3143 3172 3262 3293 3293 3357 3390 3390 3390 3390 3357 3357 3357 3357 3357 3357 3390 3390 3390 3390 3390 3390 3390 3423 3423 3423 3390 3390 3390 3423 3423 3423 3423 3423 3423 3423 3423 3423 3423 3423 3493 3493 3493 3493 3493 1063 1060 1060 1056 1056 1053 1050 1047 1044 1040 1037 1037 1034 1031 1031 1025 1022 1019 1016 1013 1013 1013 1013 1013 1016 1016 1016 1019 1019 1019 1019 1019 1019 1019 1022 1022 1022 1025 1025 1025 1025 1025 1025 1028 1028 1028 1031 1031 1034 1034 1034 1037 1037 1040 1040 1044 1044 1047 1047 1050 1053 1056 1060 1060 1063 1066 1069 1069 1073 1073 1076 1083 1086 1090 1093 1097 1100 0 0 0 0 0 0 0 0 0 0 0 0 0 0 0 0 0 573 573 573 573 573 573 573 573 573 573 573 574 574 575 575 576 576 576 576 577 578 579 579 579 580 580 580 581 582 583 583 584 584 585 585 585 586 587 587 588 588 589 590 590 591 591 592 592 592 593 593 593 594 594 595 595 595 595 596 596 596 598 598 599 600 601 601 603 604 604 605 605 606 607 608 608 608 608 609 609 610 610 611 612 612 613 613 614 614 615 617 617 618 618 618 618 619 618 619 620 621 622 622 623 623 623 624 624 625 625 627 627 628 629 629 630 630 631 631 634 635 635 636 637 637 637 637 638 638 639 639 641 642 642 643 643 644 644 644 645 647 647 648 648 648 649 649 650 651 651 651 651 653 653 654 655 656 658 658 659 659 660 660 663 663 663 663 664 664 664 665 667 668 669 669 670 672 672 673 673 673 674 674 674 676 678 678 680 680 680 681 681 681 681 681 681 0 0 0 0 0 0 0 0 0 0 0 0 0 0 0 0 0 0 0 0 0 0 0 0 0 0 0 0 0 0 0 0 0 0 0 0 0 0 0 0 0 0 0 0 0 0 0 0 0 3640 3640 3679 3679 3679 3679 3718 3718 3718 3718 3718 3718 3718 3718 3718 3718 3718 3718 3718 3718 3718 3718 3718 3679 3679 3718 3679 3679 3718 3718 3679 3640 3602 3602 3565 3565 3565 3528 3528 3528 3528 3528 3493 3493 3493 3493 3493 3458 3458 3458 3458 3423 3390 3357 3357 3357 3357 3390 3357 3324 3324 3293 3262 3262 3262 3231 3231 3262 3231 3231 3231 3231 3201 3201 3201 3172 3172 3172 3143 3143 3143 3143
    0 0 0 0 0 0 0 0 0 0 0 0 0 0 0 0 0 0 0 0 0 0 0 0 0 0 0 0 0 0 0 0 0 0 0 0 0 0 0 0 0 0 0 0 0 0 0 0 0 0 0 0 0 0 0 0 0 0 0 0 0 0 0 0 0 0 0 0 0 0 0 0 0 0 1998 2009 2009 2009 2009 2009 2009 2009 2009 2009 2021 2021 2021 2033 2033 2045 2045 2045 2045 2057 2057 2057 2057 2057 2523 2523 2523 2505 2505 2487 2469 2469 2469 2469 2469 2451 2451 2451 2451 3423 3423 3423 3390 3423 3423 3423 3423 3423 3423 3390 3390 3390 3390 3390 3390 3357 3357 3357 3357 3390 3390 3390 3390 3390 3357 3390 3390 3357 3324 3324 3324 3324 3324 3293 3324 3324 3324 3324 3357 3357 3357 3357 3357 3357 3324 3357 3324 3324 3324 3324 3357 3324 3324 3324 3324 0 3143 3172 3172 3172 3172 3172 3262 3262 3293 3357 3390 3390 3390 3390 3357 3357 3357 3357 3357 3357 3390 3390 3390 3390 3390 3390 3390 3423 3423 3423 3390 3390 3390 3423 3423 3423 3423 3423 3423 3423 3423 3423 3423 3423 3423 3493 3493 3493 3493 1063 1063 1060 1060 1056 1053 1050 1047 1044 1040 1037 1034 1031 1031 1028 1025 1022 1019 1019 1013 1013 1013 1013 1013 1016 1016 1016 1016 1016 1019 1019 1019 1019 1019 1022 1022 1022 1022 1025 1025 1025 1025 1025 1028 1028 1031 1031 1031 1034 1034 1034 1037 1037 1040 1044 1044 1047 1047 1050 1050 1053 1056 1060 1060 1063 1066 1069 1069 1073 1076 1076 1083 1086 1090 1093 1097 1100 0 0 0 0 0 0 0 0 0 0 0 0 0 0 0 0 0 573 573 573 572 573 573 573 573 573 573 573 574 574 575 575 575 576 576 576 576 577 579 579 579 579 580 580 580 581 582 583 584 584 584 585 585 586 587 587 587 588 588 589 590 591 591 591 592 592 592 592 593 593 594 594 594 595 595 595 596 596 597 598 599 599 600 601 601 603 604 604 605 605 606 607 608 608 608 609 609 610 610 611 612 612 612 613 613 614 614 615 617 617 618 618 618 618 618 618 620 620 621 622 622 622 622 623 624 624 625 625 627 627 628 629 629 629 630 631 632 634 635 635 635 636 636 638 638 638 638 639 639 641 641 642 642 643 643 644 645 645 647 647 648 648 649 649 649 650 651 651 651 651 653 654 654 655 656 656 658 658 659 660 661 663 663 664 664 664 664 665 667 668 668 669 669 670 672 672 672 673 673 673 673 674 677 677 678 678 678 681 681 681 680 681 681 0 0 0 0 0 0 0 0 0 0 0 0 0 0 0 0 0 0 0 0 0 0 0 0 0 0 0 0 0 0 0 0 0 0 0 0 0 0 0 0 0 0 0 0 0 0 0 0 0 3602 3640 3640 3640 3679 3679 3718 3718 3718 3718 3718 3718 3718 3718 3679 3679 3679 3679 3679 3718 3718 3718 3718 3679 3679 3718 3679 3679 3718 3718 3640 3640 3640 3640 3602 3602 3565 3565 3528 3528 3528 3528 3493 3493 3493 3493 3493 3458 3458 3458 3458 3390 3390 3357 3357 3357 3357 3390 3357 3357 3357 3262 3262 3262 3262 3231 3231 3231 3231 3231 3201 3201 3201 3201 3172 3172 3172 3143 3143 3143 3143 3115
    0 0 0 0 0 0 0 0 0 0 0 0 0 0 0 0 0 0 0 0 0 0 0 0 0 0 0 0 0 0 0 0 0 0 0 0 0 0 0 0 0 0 0 0 0 0 0 0 0 0 0 0 0 0 0 0 0 0 0 0 0 0 0 0 0 0 0 0 0 0 0 0 0 0 1998 2009 2009 2009 2009 2009 2009 2009 2009 2009 2021 2021 2021 2033 2033 2033 2033 2045 2045 2045 2057 2057 2057 2057 2523 2523 2505 2505 2505 2505 2487 2469 2469 2469 2469 2469 2451 2469 2469 3423 3423 3423 3423 3423 3390 3390 3390 3390 3390 3357 3357 3357 3357 3357 3390 3357 3357 3390 3390 3390 3390 3390 3390 3390 3357 3357 3357 3357 3357 3324 3324 3324 3324 3324 3324 3324 3324 3324 3324 3324 3324 3324 3357 3357 3324 3324 3293 3324 3324 3324 3324 3324 3324 3293 3293 0 3143 3143 3143 3172 3172 3172 3262 3262 3293 3324 3390 3390 3390 3390 3390 3357 3390 3357 3357 3357 3357 3357 3390 3390 3390 3390 3390 3390 3390 3390 3390 3390 3390 3390 3390 3390 3390 3423 3390 3423 3423 3423 3390 3423 3458 3458 3458 3458 3458 3458 1063 1063 1060 1060 1056 1050 1047 1044 1040 1037 1034 1034 1031 1028 1025 1022 1019 1019 1016 1016 1016 1016 1016 1016 1016 1016 1016 1016 1019 1016 1019 1019 1019 1019 1022 1022 1022 1022 1022 1025 1025 1025 1028 1028 1031 1031 1031 1031 1034 1034 1037 1037 1040 1044 1044 1047 1047 1050 1050 1056 1056 1060 1060 1063 1066 1069 1069 1073 1076 1076 1083 1086 1090 1093 1097 1100 0 0 0 0 0 0 0 0 0 0 0 0 0 0 0 0 0 573 573 573 572 573 573 573 573 573 573 573 574 574 574 575 575 575 576 576 576 577 578 578 579 579 579 580 580 581 581 582 583 584 584 585 585 586 586 587 587 587 588 589 589 590 591 591 591 592 592 592 592 592 593 593 594 594 594 595 595 596 597 597 598 599 600 600 600 601 601 603 604 604 605 606 607 608 608 608 608 609 610 611 612 612 612 613 613 613 614 615 617 617 617 618 618 618 617 617 619 620 621 621 622 622 622 623 624 624 625 625 625 627 628 628 629 630 630 630 631 632 634 635 635 635 635 635 636 637 638 639 639 641 641 641 642 642 643 644 644 645 645 647 648 648 648 648 649 650 650 650 651 651 653 653 654 655 655 656 658 658 659 659 660 661 661 663 663 664 664 664 665 668 668 668 669 669 670 670 672 672 673 673 673 674 676 676 678 677 678 680 681 681 681 681 681 0 0 0 0 0 0 0 0 0 0 0 0 0 0 0 0 0 0 0 0 0 0 0 0 0 0 0 0 0 0 0 0 0 0 0 0 0 0 0 0 0 0 0 0 0 0 0 0 0 3602 3602 3602 3679 3679 3679 3679 3718 3718 3718 3759 3718 3718 3718 3718 3718 3679 3679 3679 3718 3718 3718 3718 3679 3718 3718 3679 3679 3679 3640 3640 3640 3602 3565 3528 3602 3528 3528 3528 3528 3528 3528 3493 3493 3493 3493 3493 3493 3458 3458 3458 3423 3390 3390 3357 3357 3357 3357 3324 3357 3293 3262 3262 3262 3262 3231 3262 3231 3231 3201 3201 3201 3201 3201 3172 3172 3172 3172 3143 3143 3143 3115
    0 0 0 0 0 0 0 0 0 0 0 0 0 0 0 0 0 0 0 0 0 0 0 0 0 0 0 0 0 0 0 0 0 0 0 0 0 0 0 0 0 0 0 0 0 0 0 0 0 0 0 0 0 0 0 0 0 0 0 0 0 0 0 0 0 0 0 0 0 0 0 0 0 1986 1998 2009 2009 2009 2009 2009 2009 2009 2009 2009 2021 2021 2021 2033 2033 2033 2033 2045 2045 2045 2057 2057 2057 2057 2523 2523 2505 2505 2505 2487 2469 2469 2469 2469 2469 2469 2451 2469 2469 3423 3423 3324 3357 3390 3357 3390 3390 3390 3390 3357 3357 3357 3390 3357 3357 3357 3357 3390 3390 3390 3390 3390 3390 3390 3357 3324 3357 3357 3357 3357 3324 3324 3324 3324 3324 3324 3324 3324 3324 3324 3324 3324 3324 3324 3324 3324 3293 3324 3293 3324 3324 3324 3324 0 3324 0 3143 3143 3143 3143 3172 3172 3201 3262 3262 3357 3357 3390 3390 3390 3357 3357 3357 3357 3357 3390 3390 3357 3357 3390 3390 3390 3390 3390 3390 3390 3390 3390 3390 3390 3390 3390 3390 3390 3390 3390 3390 3390 3390 3423 3390 3423 3423 3423 3423 3458 1066 1063 1060 1060 1053 1050 1047 1044 1040 1037 1034 1034 1031 1031 1025 1022 1019 1019 1016 1016 1016 1016 1016 1016 1016 1016 1016 1016 1016 1016 1016 1016 1016 1019 1019 1019 1022 1022 1022 1022 1025 1025 1028 1028 1031 1031 1031 1034 1034 1034 1037 1037 1040 1044 1044 1047 1047 1050 1053 1056 1056 1060 1063 1063 1066 1069 1069 1073 1076 1079 1083 1090 1093 1093 1097 1100 0 0 0 0 0 0 0 0 0 0 0 0 0 0 0 0 0 573 572 572 572 572 573 573 572 573 573 573 573 574 574 575 575 575 576 576 576 577 578 578 578 579 579 579 580 580 581 582 583 583 584 584 585 585 586 586 587 587 588 588 589 590 591 591 591 591 592 592 592 592 593 593 594 594 594 595 595 596 596 597 598 599 599 600 600 600 601 603 604 604 604 605 606 607 607 608 608 609 609 611 611 611 612 612 612 613 613 614 615 617 617 617 618 618 617 617 618 619 620 621 621 621 621 622 623 624 624 625 625 625 627 628 629 629 630 630 631 632 634 634 635 635 635 635 636 637 638 638 639 639 639 641 641 642 642 643 644 644 645 645 647 647 648 648 649 649 650 650 650 651 651 653 654 654 655 655 656 658 659 659 660 660 661 661 663 663 664 664 665 667 667 668 668 669 669 670 670 672 672 674 673 674 676 676 677 676 678 678 681 680 681 681 682 0 0 0 0 0 0 0 0 0 0 0 0 0 0 0 0 0 0 0 0 0 0 0 0 0 0 0 0 0 0 0 0 0 0 0 0 0 0 0 0 0 0 0 0 0 0 0 0 0 3565 3565 3602 3640 3679 3679 3679 3718 3718 3718 3759 3759 3718 3718 3718 3718 3718 3718 3718 3718 3718 3718 3718 3679 3679 3679 3679 3679 3679 3640 3640 3640 3602 3565 3528 3528 3528 3528 3528 3528 3528 3528 3493 3493 3493 3493 3493 3458 3458 3458 3458 3390 3390 3390 3390 3357 3357 3357 3324 3357 3293 3262 3262 3262 3262 3231 3262 3231 3231 3201 3201 3201 3201 3201 3172 3172 3172 3172 3143 3143 3143 3115
    0 0 0 0 0 0 0 0 0 0 0 0 0 0 0 0 0 0 0 0 0 0 0 0 0 0 0 0 0 0 0 0 0 0 0 0 0 0 0 0 0 0 0 0 0 0 0 0 0 0 0 0 0 0 0 0 0 0 0 0 0 0 0 0 0 0 0 0 0 0 0 0 1998 1998 1998 2009 2009 2009 2009 2009 2009 2009 2009 2009 2021 2021 2021 2033 2033 2045 2033 2045 2045 2045 2057 2057 2057 0 2542 2542 2523 2505 2505 2505 2469 2469 2469 2469 2451 2451 2451 2451 3390 3390 3390 3324 3357 3357 3357 3390 3357 3390 3390 3357 3357 3357 3357 3357 3357 3357 3357 3357 3357 3390 3390 3390 3390 3390 3324 3324 3390 3390 3390 3324 3324 3324 3324 3324 3324 3324 3293 3293 3324 3293 3293 3293 3324 3324 3324 3324 3293 3293 3293 3293 3293 3293 3293 3293 3262 0 0 0 3143 3143 3172 3172 3201 3231 3262 3293 3357 3357 3357 3357 3357 3357 3357 3357 3357 3357 3390 3357 3390 3390 3390 3390 3390 3390 3423 3390 3390 3390 3390 3390 3390 3390 3390 3390 3390 3390 3423 3390 3423 3423 3390 3423 3390 3423 3423 3423 3458 1063 1063 1060 1056 1050 1050 1047 1040 1037 1034 1034 1031 1028 1025 1022 1022 1019 1016 1016 1016 1016 1016 1016 1016 1013 1013 1013 1013 1013 1013 1013 1016 1016 1019 1019 1019 1019 1022 1022 1025 1025 1028 1028 1031 1031 1031 1031 1034 1034 1037 1037 1040 1044 1044 1047 1047 1050 1053 1056 1060 1060 1063 1063 1066 1069 1069 1073 1076 1083 1086 1093 1097 1097 1097 0 0 0 0 0 0 0 0 0 0 0 0 0 0 0 0 0 0 0 573 573 572 573 573 573 572 573 573 573 573 573 574 575 575 575 575 575 576 576 578 578 578 579 579 579 580 580 580 581 582 582 583 583 584 584 586 586 587 587 588 588 589 589 590 591 591 591 591 592 592 592 593 593 593 594 594 594 595 595 596 596 597 598 599 599 600 600 601 601 603 603 604 605 605 606 607 607 607 608 609 609 610 610 611 612 612 613 613 613 614 615 615 617 617 617 617 617 617 618 619 620 620 621 621 621 622 623 624 624 625 625 627 627 628 629 629 630 630 631 632 634 634 634 634 635 635 636 637 638 639 639 639 639 639 641 642 643 643 644 644 645 647 647 648 648 649 649 650 650 650 651 651 653 653 654 654 655 656 658 658 659 659 659 660 661 661 663 664 664 664 665 665 667 668 669 669 669 669 670 673 673 673 674 676 676 677 677 677 678 680 680 680 680 681 0 0 0 0 0 0 0 0 0 0 0 0 0 0 0 0 0 0 0 0 0 0 0 0 0 0 0 0 0 0 0 0 0 0 0 0 0 0 0 0 0 0 0 0 0 0 0 0 3528 3528 3565 3602 3602 3679 3679 3679 3679 3718 3718 3759 3718 3718 3718 3718 3718 3718 3718 3718 3718 3679 3679 3679 3679 3679 3679 3679 3679 3679 3640 3640 3640 3565 3565 3565 3602 3602 3565 3528 3528 3528 3528 3493 3493 3493 3493 3493 3493 3458 3458 3423 3390 3390 3390 3390 3357 3357 3390 3390 3357 3293 3262 3262 3262 3262 3231 3231 3231 3231 3201 3201 3201 3201 3201 3172 3172 3172 3172 3143 3143 3143 3115
    0 0 0 0 0 0 0 0 0 0 0 0 0 0 0 0 0 0 0 0 0 0 0 0 0 0 0 0 0 0 0 0 0 0 0 0 0 0 0 0 0 0 0 0 0 0 0 0 0 0 0 0 0 0 0 0 0 0 0 0 0 0 0 0 0 0 0 0 0 0 0 0 1998 1998 1998 2009 2009 2009 2009 2009 2009 2009 2009 2009 2009 2021 2021 2033 2033 2033 2033 2033 2033 2045 2045 2045 2057 2057 2542 2542 2523 2505 2523 2505 2487 2469 2469 2469 2451 2434 2434 2434 3262 3324 3324 3324 3357 3357 3390 3390 3357 3357 3357 3357 3357 3357 3357 3357 3357 3357 3357 3357 3357 3357 3357 3390 3357 3357 3324 3324 3324 3390 3390 3324 3324 3357 3357 3357 3324 3324 3324 3324 3324 3324 3324 3293 3324 3324 3324 3324 3293 3293 3293 3293 3293 3293 3293 3262 3262 0 3115 0 3143 3143 3172 3172 3201 3231 3262 3293 3324 3324 3357 3357 3324 3324 3324 3324 3324 3357 3357 3357 3357 3390 3357 3390 3390 3390 3390 3390 3390 3390 3390 3357 3390 3390 3390 3390 3390 3390 3390 3390 3390 3390 3390 3390 3390 3423 3423 3423 3423 1063 1063 1063 1060 1053 1050 1044 1040 1037 1034 1031 1031 1028 1022 1022 1019 1019 1016 1016 1016 1013 1013 1013 1013 1013 1013 1013 1010 1013 1013 1013 1013 1016 1016 1019 1019 1022 1022 1022 1022 1025 1025 1028 1028 1031 1031 1031 1034 1034 1034 1037 1040 1044 1044 1047 1047 1050 1053 1056 1060 1060 1063 1066 1069 1069 1073 1073 1079 1083 1090 1093 1097 1097 1097 0 0 0 0 0 0 0 0 0 0 0 0 0 0 0 0 0 0 0 572 572 572 572 572 572 572 572 572 572 573 573 574 574 575 575 575 575 576 576 577 577 578 578 579 579 579 580 580 580 581 582 583 583 584 584 585 586 586 587 587 588 588 589 589 590 590 591 591 591 592 592 592 593 593 594 594 594 594 595 595 596 596 598 599 599 599 600 600 601 603 603 604 604 605 606 606 607 607 608 609 609 610 610 611 611 611 612 612 613 613 614 615 615 617 617 615 615 617 617 618 619 620 620 621 621 622 623 623 624 624 625 625 627 627 628 629 630 630 631 632 632 634 634 634 635 635 636 637 638 638 639 639 639 639 641 641 643 643 643 644 644 645 645 647 647 648 649 649 650 650 650 651 653 653 654 654 655 656 656 658 658 659 659 659 660 661 663 663 664 664 665 665 667 667 668 668 669 669 670 670 670 672 672 674 674 674 676 676 677 678 678 680 680 681 0 0 0 0 0 0 0 0 0 0 0 0 0 0 0 0 0 0 0 0 0 0 0 0 0 0 0 0 0 0 0 0 0 0 0 0 0 0 0 0 0 0 0 0 0 0 3565 3528 3528 3565 3565 3602 3640 3640 3640 3679 3679 3718 3718 3718 3718 3718 3718 3718 3718 3718 3718 3718 3679 3679 3679 3679 3679 3679 3718 3679 3679 3718 3679 3679 3640 3602 3602 3565 3602 3565 3565 3565 3565 3565 3528 3528 3493 3493 3493 3493 3493 3458 3458 3423 3390 3390 3390 3357 3357 3357 3357 3357 3357 3357 3262 3262 3262 3262 3231 3231 3231 3201 3201 3201 3201 3201 3201 3172 3172 3172 3172 3143 3143 3115 3115
    0 0 0 0 0 0 0 0 0 0 0 0 0 0 0 0 0 0 0 0 0 0 0 0 0 0 0 0 0 0 0 0 0 0 0 0 0 0 0 0 0 0 0 0 0 0 0 0 0 0 0 0 0 0 0 0 0 0 0 0 0 0 0 0 0 0 0 0 0 0 0 1975 1998 1998 1998 1998 2009 2009 2009 2009 2009 2009 2009 2009 2009 2021 2021 2021 2033 2033 2033 2033 2033 2033 2045 2045 2045 2580 2580 2560 2542 2523 2523 2505 2487 2469 2469 2469 2469 2434 2434 3262 3262 3293 3293 3324 3324 3357 3357 3357 3357 3357 3357 3357 3357 3324 3357 3357 3357 3357 3357 3357 3357 3357 3357 3357 3357 3357 3324 3357 3324 3357 3357 3357 3357 3357 3357 3357 3357 3357 3357 3324 3324 3324 3324 3293 3324 3324 3324 3324 3293 3293 3293 3324 3293 3293 3293 3293 3293 0 3115 3115 3143 3143 3172 3172 3201 3231 3262 3293 3324 3324 3357 3357 3324 3324 3357 3357 3357 3357 3357 3357 3357 3357 3357 3357 3357 3390 3390 3357 3390 3390 3390 3390 3390 3390 3390 3390 3390 3390 3357 3390 3390 3390 3390 3390 3390 3423 3423 3423 3423 1066 1063 1063 1060 1050 1047 1044 1040 1034 1034 1031 1031 1025 1022 1019 1019 1016 1016 1013 1013 1013 1013 1013 1013 1013 1013 1013 1010 1010 1013 1013 1013 1013 1016 1019 1019 1019 1022 1022 1022 1025 1025 1025 1028 1031 1031 1031 1034 1034 1037 1037 1040 1044 1044 1047 1047 1050 1053 1056 1060 1063 1063 1066 1069 1069 1073 1076 1079 1086 1090 1093 1097 1097 1097 0 0 0 0 0 0 0 0 0 0 0 0 0 0 0 0 0 0 0 0 572 572 572 572 572 571 572 572 572 572 573 573 574 574 574 574 575 575 576 576 576 577 578 578 579 579 580 580 580 581 581 582 582 583 583 585 586 586 587 587 587 588 588 588 589 589 590 591 591 592 592 592 593 593 593 593 594 594 595 595 596 597 597 598 599 599 600 600 600 601 601 603 604 605 605 606 607 607 608 609 609 610 610 610 611 611 612 612 613 613 614 615 615 617 617 615 615 617 617 618 619 619 620 620 621 622 622 623 624 624 624 625 625 627 628 628 629 630 630 631 632 632 632 634 634 635 635 636 637 638 639 638 639 639 639 641 642 643 643 643 644 644 644 645 645 647 648 649 649 650 650 651 653 653 654 654 654 655 655 656 656 658 658 659 659 663 661 663 663 664 665 665 667 667 668 668 668 669 669 669 670 670 672 672 673 674 673 676 676 678 678 678 680 681 680 0 0 0 0 0 0 0 0 0 0 0 0 0 0 0 0 0 0 0 0 0 0 0 0 0 0 0 0 0 0 0 0 0 0 0 0 0 0 0 0 0 0 0 0 0 0 3528 3528 3565 3602 3602 3640 3640 3640 3679 3679 3679 3679 3718 3718 3718 3718 3718 3718 3718 3718 3718 3679 3679 3679 3718 3679 3679 3718 3679 3679 3718 3679 3679 3679 3679 3640 3602 3602 3602 3602 3602 3602 3565 3528 3528 3493 3493 3493 3493 3493 3458 3458 3423 3390 3390 3390 3357 3357 3357 3357 3357 3357 3357 3262 3262 3231 3262 3262 3231 3231 3231 3231 3231 3201 3201 3201 3172 3172 3172 3143 3143 3115 3115 3087
    0 0 0 0 0 0 0 0 0 0 0 0 0 0 0 0 0 0 0 0 0 0 0 0 0 0 0 0 0 0 0 0 0 0 0 0 0 0 0 0 0 0 0 0 0 0 0 0 0 0 0 0 0 0 0 0 0 0 0 0 0 0 0 0 0 0 0 0 0 0 0 0 0 1998 1998 1998 1998 1998 1998 2009 2009 2009 2009 2009 2009 2009 2021 2021 2021 2033 2033 2033 2021 2033 2033 2045 2045 2560 2560 2542 2523 2505 2505 2505 2487 2469 2469 2469 2451 2434 2434 3262 3262 3293 3293 3324 3324 3357 3357 3357 3324 3324 3357 3324 3324 3324 3324 3324 3324 3324 3324 3357 3324 3357 3357 3357 3357 3357 3324 3324 3324 3324 3357 3324 3357 3357 3357 3357 3357 3357 3357 3357 3324 3324 3324 3293 3293 3324 3293 3324 3293 3324 3324 3324 3324 3293 3324 0 0 3087 3143 3143 3143 3172 3172 3172 3201 3231 3262 3293 3324 3324 3357 3357 3357 3357 3357 3357 3357 3357 3357 3357 3357 3357 3357 3357 3390 3390 3390 3390 3390 3390 3390 3390 3390 3390 3390 3390 3390 3357 3357 3357 3357 3390 3390 3390 3390 3390 3390 3390 3423 3390 1066 1063 1060 1050 1044 1040 1037 1034 1031 1031 1028 1025 1022 1019 1016 1016 1013 1013 1013 1013 1013 1013 1010 1010 1010 1010 1010 1010 1010 1013 1013 1013 1016 1019 1019 1022 1022 1022 1022 1025 1025 1025 1028 1028 1031 1031 1034 1034 1037 1037 1040 1044 1044 1047 1047 1050 1053 1056 1060 1060 1063 1066 1069 1069 1073 1076 1083 1086 1090 1093 1097 1097 1097 0 0 0 0 0 0 0 0 0 0 0 0 0 0 0 0 0 0 0 0 571 570 571 571 571 570 571 571 572 572 573 573 573 574 574 573 574 575 575 576 576 576 577 578 579 579 579 580 580 580 581 581 581 582 583 584 585 586 586 587 587 587 588 588 589 589 590 590 591 591 592 592 592 593 593 594 594 594 595 595 596 597 598 598 599 599 600 600 600 601 601 603 604 604 605 605 606 607 608 608 609 609 610 610 610 611 611 612 613 613 614 614 615 617 617 615 615 617 617 618 618 619 620 620 621 621 622 622 623 624 624 624 625 627 627 627 628 629 630 630 631 632 632 632 634 635 635 636 637 638 638 638 638 639 639 641 641 642 642 643 643 644 644 644 645 645 647 648 649 649 650 650 651 653 653 654 654 654 655 656 656 658 658 658 659 660 663 663 663 664 665 665 665 665 667 668 668 668 669 669 669 670 670 670 673 673 673 674 677 677 678 677 678 678 678 0 0 0 0 0 0 0 0 0 0 0 0 0 0 0 0 0 0 0 0 0 0 0 0 0 0 0 0 0 0 0 0 0 0 0 0 0 0 0 0 0 0 0 0 0 3493 3493 3528 3565 3640 3602 3640 3679 3679 3679 3679 3679 3679 3718 3718 3679 3718 3718 3718 3718 3718 3718 3679 3679 3718 3718 3679 3679 3718 3679 3718 3718 3679 3679 3679 3679 3640 3602 3602 3602 3602 3602 3565 3565 3528 3528 3528 3493 3493 3493 3458 3458 3423 3390 3390 3390 3390 3390 3357 3324 3357 3357 3357 3262 3262 3262 3231 3262 3262 3231 3231 3231 3231 3231 3231 3201 3201 3172 3172 3172 3143 3143 3115 3115 3087
    0 0 0 0 0 0 0 0 0 0 0 0 0 0 0 0 0 0 0 0 0 0 0 0 0 0 0 0 0 0 0 0 0 0 0 0 0 0 0 0 0 0 0 0 0 0 0 0 0 0 0 0 0 0 0 0 0 0 0 0 0 0 0 0 0 0 0 0 0 0 0 0 2009 1998 1998 1998 1998 1998 1998 2009 1998 2009 2009 2009 2009 2009 2009 2009 2021 2033 2021 2033 2021 2033 2033 2033 2542 2542 2542 2542 2523 2505 2505 2505 2487 2469 2469 2469 2451 2434 3293 3293 3324 3293 3293 3324 3324 3357 3357 3357 3324 3324 3324 3324 3324 3324 3324 3324 3324 3324 3324 3324 3324 3324 3357 3357 3357 3357 3324 3324 3324 3324 3324 3324 3324 3324 3324 3357 3357 3357 3357 3324 3324 3324 3324 3293 3293 3324 3293 3324 3293 3324 3324 3324 3324 3293 3324 3324 3087 3087 3115 3115 3143 3172 3172 3172 3201 3231 3262 3262 3293 3324 3324 3357 3324 3357 3357 3357 3357 3357 3357 3357 3357 3357 3357 3357 3390 3390 3390 3390 3390 3390 3390 3390 3390 3390 3390 3357 3357 3357 3324 3357 3357 3357 3357 3390 3390 3390 3390 3390 3390 3390 1069 3390 1063 1050 1044 1040 1037 1034 1034 1031 1028 1025 1022 1019 1019 1016 1013 1013 1013 1013 1010 1010 1010 1010 1010 1010 1010 1010 1010 1010 1013 1013 1016 1019 1019 1022 1022 1022 1025 1025 1025 1025 1028 1028 1031 1031 1034 1034 1037 1037 1040 1044 1044 1047 1047 1053 1056 1056 1060 1060 1063 1063 1069 1069 1073 1076 1083 1086 1090 1093 1093 1097 1097 0 0 0 0 0 0 0 0 0 0 0 0 0 0 0 0 0 0 0 0 570 570 570 570 571 570 571 571 572 572 572 573 573 573 573 573 573 574 575 575 575 576 577 577 578 578 579 579 580 580 580 580 580 581 581 582 583 584 586 586 587 587 588 588 588 588 588 589 590 591 591 592 592 592 593 593 593 594 594 595 596 596 597 598 599 599 599 600 600 601 601 601 603 604 605 606 606 606 607 608 609 609 610 610 610 610 611 612 612 613 613 614 615 615 615 615 615 615 617 617 618 619 619 620 620 621 621 622 623 623 624 624 625 625 625 625 627 628 629 630 630 631 631 632 634 634 635 636 637 638 638 638 638 638 639 639 639 641 641 642 643 643 644 644 644 645 647 648 648 649 649 650 651 651 653 653 653 654 654 655 656 656 658 658 659 660 661 661 663 664 664 664 664 665 667 668 668 668 669 669 669 669 670 670 673 673 673 674 676 677 677 678 678 678 678 0 0 0 0 0 0 0 0 0 0 0 0 0 0 0 0 0 0 0 0 0 0 0 0 0 0 0 0 0 0 0 0 0 0 0 0 0 0 0 0 0 0 0 0 0 0 0 0 3602 3640 3640 3640 3679 3679 3679 3679 3679 3679 3679 3679 3679 3718 3718 3718 3718 3718 3718 3718 3759 3718 3718 3718 3718 3718 3718 3718 3679 3679 3679 3679 3640 3640 3565 3565 3602 3602 3565 3565 3565 3528 3528 3528 3493 3493 3493 3458 3458 3423 3423 3390 3390 3390 3390 3357 3324 3324 3357 3357 3262 3262 3262 3293 3262 3262 3231 3231 3231 3201 3201 3201 3172 3172 3172 3172 3172 3172 3143 3143 3115 3087
    0 0 0 0 0 0 0 0 0 0 0 0 0 0 0 0 0 0 0 0 0 0 0 0 0 0 0 0 0 0 0 0 0 0 0 0 0 0 0 0 0 0 0 0 0 0 0 0 0 0 0 0 0 0 0 0 0 0 0 0 0 0 0 0 0 0 0 0 0 0 0 1998 1998 1998 1998 1998 1998 1998 1998 1998 1998 1998 2009 2009 2009 2009 2009 2009 2021 2021 2033 2033 2033 2033 2033 2033 2560 2542 2542 2542 2523 2505 2505 2487 2469 2469 2451 2451 2451 2434 2417 3324 3357 3324 3324 3324 3357 3357 3357 3357 3324 3357 3357 3357 3324 3324 3324 3324 3324 3357 3324 3324 3324 3324 3324 3357 3357 3324 3293 3324 3324 3324 3324 3324 3324 3324 3357 3324 3357 3357 3357 3357 3357 3357 3324 3324 3324 3324 3324 3324 3324 3324 3324 3324 3293 3293 3293 3293 3115 3115 3115 3143 3143 3172 3172 3172 3201 3231 3262 3262 3293 3293 3324 3324 3324 3324 3324 3324 3357 3357 3357 3357 3357 3357 3357 3390 3390 3357 3357 3390 3390 3390 3390 3390 3390 3390 3390 3357 3357 3357 3324 3357 3357 3357 3357 3390 3390 3390 3390 3390 3390 3390 3357 3357 3357 1050 1044 1040 1037 1034 1034 1031 1028 1025 1022 1019 1016 1016 1013 1013 1010 1010 1010 1010 1010 1010 1010 1010 1010 1010 1010 1010 1016 1016 1016 1019 1019 1019 1022 1022 1025 1025 1025 1025 1028 1031 1031 1031 1034 1034 1037 1037 1040 1040 1044 1047 1047 1053 1056 1056 1060 1063 1063 1066 1069 1069 1073 1076 1083 1086 1090 1093 1097 1097 1100 0 0 0 0 0 0 0 0 0 0 0 0 0 0 0 0 0 0 0 0 570 570 570 571 571 570 571 571 571 572 572 572 573 573 573 573 573 574 574 575 575 575 576 577 577 578 579 579 579 580 580 580 580 581 581 582 583 584 585 586 586 586 587 587 588 588 588 589 590 591 591 592 592 592 592 593 593 594 594 595 595 596 597 598 598 599 599 600 600 600 601 601 603 604 604 605 605 606 606 608 608 609 609 609 610 610 611 611 612 612 613 614 614 615 615 614 615 615 615 617 617 618 618 619 620 621 621 621 622 623 623 624 624 625 625 625 627 628 629 629 630 630 631 631 632 634 635 635 636 637 638 637 637 638 638 639 639 639 641 642 643 643 644 644 644 645 647 648 648 648 649 649 650 650 651 651 651 653 654 655 655 656 656 658 659 659 661 661 661 663 664 664 664 664 665 665 667 668 668 668 669 669 669 670 672 673 672 673 674 676 677 677 678 678 0 0 0 0 0 0 0 0 0 0 0 0 0 0 0 0 0 0 0 0 0 0 0 0 0 0 0 0 0 0 0 0 0 0 0 0 0 0 0 0 0 0 0 0 0 0 0 0 0 0 3602 3602 3640 3679 3679 3679 3679 3679 3679 3679 3679 3679 3718 3679 3718 3718 3718 3718 3718 3718 3718 3718 3718 3718 3718 3679 3718 3679 3679 3718 3679 3679 3640 3602 3602 3602 3602 3565 3565 3565 3528 3528 3493 3493 3493 3493 3458 3458 3423 3423 3390 3390 3390 3390 3390 3357 3357 3357 3357 3324 3324 3324 3293 3262 3262 3231 3231 3231 3201 3201 3201 3172 3172 3172 3172 3172 3172 3143 3143 3087 3087
    0 0 0 0 0 0 0 0 0 0 0 0 0 0 0 0 0 0 0 0 0 0 0 0 0 0 0 0 0 0 0 0 0 0 0 0 0 0 0 0 0 0 0 0 0 0 0 0 0 0 0 0 0 0 0 0 0 0 0 0 0 0 0 0 0 0 0 0 0 0 0 1998 1986 1986 1986 1998 1998 1998 1998 1998 1998 1998 2009 2009 2009 2009 2009 2021 2021 2033 2033 2033 2033 2033 2045 2045 2560 2560 2542 2542 2523 2505 2505 2487 2469 2451 2451 2451 2451 2434 2417 3324 3390 3324 3324 3324 3357 3357 3357 3357 3357 3357 3357 3357 3357 3324 3357 3324 3324 3324 3324 3324 3324 3324 3324 3324 3324 3324 3293 3324 3293 3324 3324 3324 3324 3324 3324 3324 3357 3357 3324 3357 3357 3357 3357 3324 3357 3357 3324 3324 3324 3324 3324 3324 3324 3293 3324 3324 3059 3115 3115 3143 3143 3172 3172 3201 3201 3231 3262 3262 3293 3293 3293 3324 3293 3293 3324 3324 3324 3357 3357 3357 3357 3357 3390 3390 3390 3390 3390 3390 3390 3390 3390 3390 3390 3390 3390 3357 3357 3357 3324 3324 3357 3357 3357 3390 3390 3390 3390 3390 3390 3390 3357 3324 3324 1044 1044 1040 1037 1034 1034 1031 1028 1025 1022 1019 1016 1016 1013 1010 1010 1010 1010 1010 1010 1010 1013 1013 1010 1010 1010 1013 1016 1016 1019 1019 1019 1022 1022 1022 1025 1025 1025 1028 1028 1031 1031 1031 1034 1034 1037 1037 1040 1040 1044 1047 1047 1053 1056 1056 1060 1063 1063 1063 1069 1069 1073 1079 1083 1086 1090 1093 1093 1097 1100 0 0 0 0 0 0 0 0 0 0 0 0 0 0 0 0 0 0 0 569 569 569 570 570 570 570 570 570 571 571 571 572 572 573 573 573 573 573 574 574 575 575 576 576 577 577 578 579 579 580 580 580 580 581 581 582 582 583 584 585 585 586 587 587 587 587 588 588 589 590 591 591 592 592 593 593 593 594 594 594 595 596 597 597 598 599 599 599 600 600 600 601 603 603 604 605 605 605 605 607 608 609 609 609 609 609 610 611 611 612 613 613 614 614 615 614 614 615 615 617 617 617 618 618 620 620 621 621 622 622 623 623 624 625 625 625 627 627 628 629 629 630 630 631 631 632 634 634 635 637 637 637 637 637 638 638 639 639 641 642 642 643 643 644 644 645 645 648 648 648 648 648 649 649 650 651 651 653 653 654 655 655 656 658 659 660 660 661 661 663 664 664 664 664 665 665 667 667 668 668 669 669 669 670 670 673 672 673 674 676 676 677 677 678 0 0 0 0 0 0 0 0 0 0 0 0 0 0 0 0 0 0 0 0 0 0 0 0 0 0 0 0 0 0 0 0 0 0 0 0 0 0 0 0 0 0 0 0 0 0 0 0 0 0 3640 3602 3640 3679 3679 3679 3679 3679 3679 3679 3679 3679 3718 3679 3718 3718 3679 3718 3718 3718 3679 3679 3679 3679 3679 3679 3679 3679 3640 3679 3679 3640 3640 3602 3602 3602 3565 3565 3528 3528 3528 3493 3493 3493 3493 3458 3458 3423 3423 3423 3390 3390 3390 3390 3390 3357 3357 3357 3357 3357 3324 3324 3293 3293 3262 3262 3262 3231 3231 3231 3201 3172 3172 3172 3172 3172 3172 3143 3143 3143 3087
    0 0 0 0 0 0 0 0 0 0 0 0 0 0 0 0 0 0 0 0 0 0 0 0 0 0 0 0 0 0 0 0 0 0 0 0 0 0 0 0 0 0 0 0 0 0 0 0 0 0 0 0 0 0 0 0 0 0 0 0 0 0 0 0 0 0 0 0 0 0 0 1986 1986 1986 1986 1998 1998 1998 1998 2009 2009 2009 2009 2009 2009 2009 2009 2009 2021 2021 2033 2033 2033 2045 2045 2069 2542 2542 2542 2542 2523 2505 2505 2487 2469 2451 2451 2451 2434 2434 2417 3324 3357 3324 3324 3357 3357 3357 3357 3357 3357 3324 3357 3357 3357 3357 3357 3324 3357 3324 3324 3324 3324 3324 3324 3324 3324 3324 3293 3293 3293 3293 3293 3293 3324 3324 3324 3324 3324 3324 3357 3357 3357 3357 3357 3357 3357 3357 3324 3324 3324 3324 3324 3324 3324 3324 3324 3059 3059 3059 3087 3115 3143 3172 3172 3201 3231 3231 3262 3262 3293 3293 3293 3324 3293 3293 3293 3324 3324 3324 3357 3324 3357 3357 3357 3357 3390 3390 3390 3390 3390 3390 3390 3390 3390 3390 3390 3357 3357 3357 3357 3357 3357 3357 3357 3390 3390 3390 3390 3390 3390 3390 3357 3324 3324 1044 1044 1040 1037 1034 1034 1031 1031 1025 1022 1019 1016 1013 1013 1010 1010 1010 1010 1010 1010 1010 1013 1013 1010 1013 1013 1016 1016 1016 1019 1019 1019 1019 1022 1022 1025 1025 1025 1025 1028 1028 1031 1031 1034 1034 1037 1037 1040 1044 1044 1047 1047 1053 1053 1056 1060 1063 1063 1063 1069 1069 1073 1076 1083 1090 1093 1093 1097 1097 1100 0 0 0 0 0 0 0 0 0 0 0 0 0 0 0 0 0 0 0 569 569 569 570 570 570 570 570 570 571 571 571 571 572 572 572 573 573 573 573 574 575 575 575 576 576 577 578 578 579 579 580 580 580 580 581 581 582 583 584 585 585 586 587 587 587 587 588 588 588 589 590 591 591 592 592 593 593 594 594 594 595 595 596 596 597 598 599 599 599 600 600 601 601 603 604 605 605 605 605 606 607 608 608 608 609 609 610 610 611 612 612 613 613 613 614 613 614 614 615 615 617 617 618 618 619 620 620 621 621 622 622 623 624 624 625 625 625 627 628 629 629 629 630 630 630 631 632 632 634 636 636 637 637 637 637 638 638 638 639 642 642 643 643 643 644 644 645 647 648 648 648 648 649 649 649 650 650 651 653 654 654 654 656 658 658 659 660 660 661 663 664 664 664 664 664 665 665 667 668 668 668 669 669 669 670 672 670 672 673 674 676 676 676 677 0 0 0 0 0 0 0 0 0 0 0 0 0 0 0 0 0 0 0 0 0 0 0 0 0 0 0 0 0 0 0 0 0 0 0 0 0 0 0 0 0 0 0 0 0 0 0 0 0 0 0 3602 3640 3679 3679 3679 3679 3679 3679 3679 3679 3679 3679 3679 3679 3679 3679 3679 3679 3679 3679 3679 3679 3679 3679 3679 3679 3679 3640 3679 3679 3679 3679 3640 3602 3602 3602 3565 3565 3565 3528 3528 3493 3493 3493 3493 3458 3458 3423 3423 3390 3390 3390 3390 3357 3357 3357 3357 3357 3357 3324 3324 3293 3293 3262 3262 3262 3231 3231 3201 3201 3143 3172 3172 3172 3172 3172 3172 3172 3143 3087
    0 0 0 0 0 0 0 0 0 0 0 0 0 0 0 0 0 0 0 0 0 0 0 0 0 0 0 0 0 0 0 0 0 0 0 0 0 0 0 0 0 0 0 0 0 0 0 0 0 0 0 0 0 0 0 0 0 0 0 0 0 0 0 0 0 0 0 0 0 0 0 1975 1975 1986 1986 1986 1998 1998 1998 1998 2009 1998 2009 2009 2009 2009 2009 2009 2009 2021 2021 2033 2033 2045 2057 2069 2542 2542 2523 2523 2505 2505 2487 2469 2469 2451 2451 2451 2451 2451 2434 3390 3390 3324 3357 3324 3357 3357 3324 3324 3324 3324 3324 3357 3357 3357 3357 3357 3357 3324 3324 3324 3324 3324 3324 3324 3324 3324 3293 3293 3293 3293 3293 3293 3293 3293 3293 3293 3324 3324 3324 3357 3357 3357 3357 3357 3357 3324 3324 3324 3324 3324 3324 3324 3324 3357 3357 3059 3059 3059 3059 3087 3143 3172 3172 3201 3231 3262 3262 3293 3293 3293 3324 3324 3324 3293 3324 3324 3324 3357 3357 3324 3357 3357 3357 3357 3390 3390 3390 3390 3390 3423 3423 3390 3390 3390 3390 3357 3357 3357 3357 3357 3357 3357 3390 3390 3390 3390 3390 3390 3390 3390 3357 3324 3293 1040 1040 1040 1037 1037 1034 1031 1031 1025 1022 1019 1013 1013 1013 1010 1010 1010 1010 1010 1010 1010 1013 1013 1013 1013 1013 1016 1016 1016 1016 1019 1019 1019 1022 1025 1025 1025 1025 1028 1028 1031 1031 1031 1034 1034 1034 1037 1040 1040 1044 1047 1047 1053 1056 1056 1060 1063 1063 1063 1069 1069 1073 1076 1083 1090 1090 1093 1097 1097 1100 0 0 0 0 0 0 0 0 0 0 0 0 0 0 0 0 0 0 0 569 569 569 569 570 570 569 569 570 570 571 571 571 571 572 572 573 573 573 573 573 574 574 575 575 576 576 577 578 578 579 579 580 580 580 581 581 581 582 583 584 585 586 586 587 587 587 587 588 588 589 589 590 591 591 592 592 593 594 594 594 595 595 596 596 597 597 598 598 599 599 599 600 601 601 604 605 604 604 605 606 607 608 608 608 608 609 609 610 610 611 612 612 613 613 614 613 613 614 615 615 615 617 617 618 618 619 620 620 621 621 622 622 623 624 624 625 625 627 627 628 628 629 629 629 630 630 632 632 634 635 635 636 636 636 636 637 637 638 639 641 642 642 643 643 644 644 645 647 647 647 647 647 648 648 649 649 650 653 653 653 654 654 655 656 658 658 659 660 661 663 663 664 664 664 664 664 665 665 667 667 668 668 668 669 669 670 670 672 673 673 674 676 676 677 678 0 0 0 0 0 0 0 0 0 0 0 0 0 0 0 0 0 0 0 0 0 0 0 0 0 0 0 0 0 0 0 0 0 0 0 0 0 0 0 0 0 0 0 0 0 0 0 0 0 0 0 3640 3640 3640 3679 3679 3679 3679 3679 3679 3679 3679 3679 3679 3679 3679 3679 3640 3679 3679 3679 3679 3679 3679 3679 3679 3679 3679 3679 3679 3679 3679 3640 3602 3602 3602 3565 3528 3528 3528 3528 3493 3493 3493 3493 3458 3423 3423 3423 3390 3390 3390 3357 3357 3357 3357 3357 3357 3357 3324 3324 3293 3293 3293 3262 3262 3231 3231 3172 3172 3143 3143 3143 3115 3115 3115 3115 3087 3087 3087
    0 0 0 0 0 0 0 0 0 0 0 0 0 0 0 0 0 0 0 0 0 0 0 0 0 0 0 0 0 0 0 0 0 0 0 0 0 0 0 0 0 0 0 0 0 0 0 0 0 0 0 0 0 0 0 0 0 0 0 0 0 0 0 0 0 0 0 0 0 0 0 1986 1986 1986 1986 1998 1998 1998 1998 1998 1998 1998 1998 2009 2009 2009 2009 2009 2009 2021 2033 2033 2033 2045 2057 2069 2542 2523 2523 2523 2505 2505 2487 2469 2469 2451 2451 2451 2451 2451 2451 3357 3357 3324 3324 3357 3357 3357 3357 3357 3357 3324 3357 3357 3357 3357 3357 3357 3357 3324 3324 3324 3324 3324 3324 3324 3324 3324 3293 3293 3293 3293 3293 3293 3293 3293 3293 3293 3293 3293 3324 3324 3324 3357 3357 3357 3357 3357 3324 3324 3324 3324 3324 3324 3324 3357 3357 3059 3059 3059 3059 3115 3143 3172 3201 3231 3231 3262 3293 3293 3293 3324 3324 3324 3324 3324 3324 3293 3324 3324 3324 3324 3324 3357 3357 3357 3357 3357 3390 3390 3390 3423 3390 3390 3390 3390 3390 3357 3357 3357 3357 3357 3390 3357 3390 3390 3390 3390 3390 3390 3390 3423 3357 3324 1040 1040 1044 1040 1040 1037 1034 1031 1031 1028 1025 1022 1016 1016 1013 1013 1010 1010 1010 1010 1010 1010 1013 1013 1016 1016 1016 1016 1016 1016 1019 1019 1019 1019 1022 1025 1022 1025 1028 1028 1028 1031 1031 1031 1034 1034 1037 1037 1040 1044 1044 1047 1047 1053 1056 1056 1060 1063 1063 1069 1069 1073 1073 1076 1086 1090 1090 1093 1097 1100 1100 0 0 0 0 0 0 0 0 0 0 0 0 0 0 0 0 0 0 0 568 569 568 569 569 569 569 569 569 570 571 571 571 571 571 572 572 572 573 573 573 574 574 575 575 575 576 576 577 578 579 579 579 579 580 580 580 581 581 583 584 585 586 586 587 587 587 587 587 588 588 588 589 590 591 592 592 592 593 593 594 595 595 596 596 596 597 597 598 598 599 599 600 600 601 603 604 603 604 604 605 606 607 607 607 608 608 609 609 610 611 612 612 613 613 614 613 613 614 614 615 615 617 617 617 618 618 619 620 620 621 621 622 623 624 624 624 625 625 627 627 627 628 629 629 629 630 631 631 632 634 635 635 635 635 636 636 637 638 638 639 641 642 642 643 643 644 644 645 647 647 647 647 648 648 649 649 650 651 651 653 654 654 655 656 656 658 659 659 660 661 663 663 663 663 664 664 664 664 665 667 667 668 668 668 669 670 669 670 672 672 673 674 674 674 677 0 0 0 0 0 0 0 0 0 0 0 0 0 0 0 0 0 0 0 0 0 0 0 0 0 0 0 0 0 0 0 0 0 0 0 0 0 0 0 0 0 0 0 0 0 0 0 0 0 0 3565 3602 3640 3640 3679 3640 3679 3679 3679 3679 3679 3679 3679 3679 3679 3640 3679 3640 3640 3679 3679 3679 3679 3679 3679 3718 3718 3679 3679 3718 3679 3679 3640 3602 3602 3602 3602 3565 3528 3528 3493 3493 3493 3493 3493 3458 3458 3423 3423 3423 3390 3390 3390 3390 3357 3357 3357 3357 3357 3324 3324 3324 3293 3293 3262 3262 3231 3231 3172 3172 3143 3143 3143 3115 3115 3115 3143 3172 3143 3087
    0 0 0 0 0 0 0 0 0 0 0 0 0 0 0 0 0 0 0 0 0 0 0 0 0 0 0 0 0 0 0 0 0 0 0 0 0 0 0 0 0 0 0 0 0 0 0 0 0 0 0 0 0 0 0 0 0 0 0 0 0 0 0 0 0 0 0 0 0 0 0 1975 1975 1986 1975 1986 1998 1998 1998 1998 1998 1998 2009 2009 2009 2009 2009 2009 2009 2021 2021 2033 2033 2045 2057 2487 2505 2523 2523 2505 2505 2487 2487 2469 2469 2451 2451 2451 2451 2451 2451 2451 3324 3324 3324 3357 3357 3357 3357 3357 3357 3357 3357 3357 3357 3357 3357 3357 3357 3324 3324 3324 3324 3324 3324 3324 3324 3324 3293 3293 3293 3293 3293 3293 3293 3293 3293 3293 3293 3293 3293 3293 3324 3324 3324 3324 3324 3324 3324 3324 3324 3324 3324 3324 3324 3357 3059 3059 3059 3059 3087 3115 3143 3172 3201 3201 3231 3262 3262 3293 3293 3293 3324 3324 3324 3293 3293 3293 3293 3324 3324 3324 3357 3357 3357 3357 3390 3390 3390 3390 3390 3390 3390 3390 3390 3390 3390 3357 3357 3357 3357 3357 3390 3390 3390 3390 3390 3390 3390 3390 3390 3390 3357 3293 3293 1047 1047 1044 1040 1040 1034 1034 1031 1028 1028 1025 1019 1019 1016 1013 1013 1013 1013 1010 1010 1010 1013 1013 1013 1016 1016 1016 1019 1019 1019 1019 1019 1019 1022 1025 1022 1025 1028 1028 1028 1031 1031 1031 1034 1034 1037 1037 1040 1044 1047 1047 1050 1053 1056 1056 1060 1060 1060 1063 1069 1069 1073 1079 1086 1090 1090 1093 1100 1100 1104 0 0 0 0 0 0 0 0 0 0 0 0 0 0 0 0 0 0 0 568 568 568 569 569 569 569 569 569 570 570 570 570 570 570 571 572 572 572 573 573 573 574 574 575 575 575 576 576 577 578 578 579 579 579 580 580 581 581 582 583 584 585 586 586 587 587 587 587 587 588 588 588 589 591 591 592 592 593 593 593 594 595 595 595 596 596 596 597 598 598 599 600 600 601 601 603 603 604 604 605 605 606 606 607 608 608 609 609 609 611 612 612 612 613 613 613 613 614 614 615 615 617 617 617 618 618 619 620 620 620 621 621 622 623 624 624 625 625 625 627 627 628 628 628 629 629 630 630 631 632 634 635 635 635 635 636 637 637 638 639 641 641 642 642 643 643 644 645 645 647 647 647 647 648 648 648 649 651 653 653 654 654 655 656 658 658 658 658 659 660 661 663 663 663 663 663 664 664 664 665 667 667 668 668 669 669 669 670 670 672 672 673 673 673 674 677 0 0 0 0 0 0 0 0 0 0 0 0 0 0 0 0 0 0 0 0 0 0 0 0 0 0 0 0 0 0 0 0 0 0 0 0 0 0 0 0 0 0 0 0 0 0 0 0 0 3602 3602 3640 3640 3640 3640 3640 3679 3679 3679 3679 3679 3679 3679 3679 3640 3640 3640 3640 3640 3640 3640 3640 3640 3679 3679 3679 3679 3679 3679 3679 3679 3640 3602 3602 3602 3565 3528 3528 3493 3493 3493 3493 3493 3458 3458 3423 3423 3423 3423 3390 3390 3390 3390 3390 3390 3357 3357 3324 3324 3324 3293 3293 3293 3262 3262 3231 3262 3231 3143 3143 3143 3143 3115 3143 3172 3172 3172 3143 3143
    0 0 0 0 0 0 0 0 0 0 0 0 0 0 0 0 0 0 0 0 0 0 0 0 0 0 0 0 0 0 0 0 0 0 0 0 0 0 0 0 0 0 0 0 0 0 0 0 0 0 0 0 0 0 0 0 0 0 0 0 0 0 0 0 0 0 0 0 0 1998 1975 1975 1975 1975 1986 1986 1998 1998 1998 1998 1998 1998 2009 2009 2009 2009 2009 2009 2021 2033 2033 2033 2045 2045 2057 2069 2487 2487 2505 2505 2505 2505 2487 2469 2469 2451 2451 2451 2451 2451 2451 2451 3357 3357 3324 3357 3357 3357 3357 3357 3357 3357 3357 3357 3357 3357 3357 3357 3357 3324 3324 3324 3324 3324 3324 3324 3324 3324 3293 3293 3293 3293 3293 3293 3293 3293 3262 3293 3293 3293 3293 3293 3324 3324 3324 3324 3324 3324 3324 3324 3324 3324 3324 3293 3293 3293 3087 3059 3059 3059 3059 3087 3143 3172 3201 3231 3231 3262 3262 3293 3293 3293 3293 3324 3293 3293 3293 3293 3293 3293 3324 3324 3324 3324 3357 3357 3357 3357 3390 3390 3390 3390 3390 3390 3357 3357 3357 3357 3357 3357 3357 3390 3390 3390 3390 3390 3390 3390 3390 3390 3390 3390 3357 3293 3293 1050 1050 1047 1044 1040 1037 1034 1034 1031 1031 1028 1022 1022 1019 1016 1016 1016 1016 1013 1013 1013 1016 1016 1016 1016 1016 1019 1019 1019 1019 1019 1019 1022 1025 1025 1028 1028 1028 1031 1031 1031 1031 1034 1034 1034 1037 1040 1040 1044 1047 1047 1050 1053 1056 1056 1060 1060 1063 1066 1069 1073 1076 1083 1090 1093 1093 1097 1100 1104 0 0 0 0 0 0 0 0 0 0 0 0 0 0 0 0 0 0 0 0 567 567 568 569 569 569 568 569 569 569 570 570 570 570 570 571 571 572 572 573 573 573 574 574 575 575 575 576 576 577 577 578 578 579 579 580 580 581 581 582 584 584 585 586 586 587 587 587 587 587 587 588 588 589 590 591 591 592 592 592 593 593 594 595 595 595 596 596 596 597 597 598 599 600 600 601 601 601 603 604 604 605 606 606 607 607 608 608 609 609 610 611 611 612 612 613 612 613 613 614 615 615 615 615 617 617 618 619 619 620 620 621 621 622 623 623 624 624 625 625 627 627 627 628 628 629 629 630 629 631 631 634 635 634 635 635 636 636 637 638 639 641 641 642 642 643 643 644 644 645 645 645 645 647 648 648 648 648 649 649 653 653 654 655 655 656 656 658 658 658 659 660 660 661 661 663 663 663 664 664 665 665 667 668 668 669 669 669 670 670 672 672 672 673 673 673 676 0 0 0 0 0 0 0 0 0 0 0 0 0 0 0 0 0 0 0 0 0 0 0 0 0 0 0 0 0 0 0 0 0 0 0 0 0 0 0 0 0 0 0 0 0 0 0 0 0 3602 3602 3640 3640 3640 3640 3640 3640 3640 3679 3679 3679 3679 3679 3679 3640 3640 3640 3602 3640 3602 3640 3640 3640 3679 3679 3679 3679 3679 3679 3679 3679 3602 3565 3565 3565 3565 3528 3493 3493 3493 3493 3493 3493 3458 3458 3423 3423 3423 3423 3390 3390 3390 3390 3390 3390 3357 3357 3324 3293 3293 3293 3293 3293 3262 3262 3231 3262 3231 3172 3143 3143 3143 3143 3143 3172 3172 3172 3143 3143
    0 0 0 0 0 0 0 0 0 0 0 0 0 0 0 0 0 0 0 0 0 0 0 0 0 0 0 0 0 0 0 0 0 0 0 0 0 0 0 0 0 0 0 0 0 0 0 0 0 0 0 0 0 0 0 0 0 0 0 0 0 0 0 0 0 0 0 0 0 1998 1975 1964 1964 1975 1975 1986 1998 1986 1998 1998 1998 1998 2009 2009 2009 2009 2009 2009 2021 2021 2033 2033 2045 2045 2057 2057 2487 2487 2523 2505 2505 2505 2487 2469 2469 2451 2451 2451 2451 2451 2469 2469 3357 3357 3357 3357 3357 3357 3357 3357 3357 3357 3357 3357 3357 3357 3357 3357 3357 3324 3324 3324 3324 3324 3324 3324 3324 3324 3293 3293 3293 3293 3262 3293 3262 3293 3293 3293 3293 3293 3293 3293 3324 3324 3324 3324 3324 3324 3324 3324 3324 3324 3324 3324 3293 3324 3087 3059 3059 3059 3087 3115 3143 3143 3201 3201 3231 3262 3293 3293 3324 3324 3324 3324 3293 3293 3293 3293 3293 3324 3324 3324 3357 3357 3357 3357 3390 3390 3390 3390 3390 3390 3390 3390 3357 3357 3357 3357 3357 3357 3357 3390 3390 3390 3390 3390 3390 3390 3390 3390 3390 3390 3357 3390 3390 1053 1053 1050 1047 1044 1037 1034 1034 1031 1031 1028 1025 1022 1019 1019 1016 1016 1016 1016 1016 1016 1016 1016 1016 1016 1016 1019 1019 1019 1019 1019 1022 1022 1025 1025 1025 1025 1028 1031 1031 1031 1031 1031 1034 1034 1037 1040 1044 1044 1047 1047 1050 1053 1056 1056 1060 1069 1069 1069 1073 1076 1079 1086 1090 1093 1093 1097 1100 1107 0 0 0 0 0 0 0 0 0 0 0 0 0 0 0 0 0 0 0 0 566 567 567 568 568 569 568 568 569 569 569 570 569 570 570 570 571 572 572 572 573 573 573 574 574 575 575 575 576 576 577 577 577 578 579 579 579 580 580 582 583 584 585 586 586 586 587 587 587 587 587 587 588 588 590 590 591 591 592 592 593 593 594 594 595 595 595 596 596 597 597 598 599 600 600 601 601 601 603 603 604 605 605 606 606 607 608 608 608 609 609 610 610 611 612 612 612 612 613 614 615 615 615 615 617 617 618 619 619 620 620 621 621 622 623 623 624 624 624 625 627 627 628 628 628 629 629 629 629 630 631 632 634 634 635 635 635 636 637 637 638 639 639 641 641 642 643 644 644 644 645 644 645 645 647 648 648 649 649 649 650 651 653 654 654 655 655 656 656 656 658 659 660 660 661 663 663 663 663 664 664 665 667 667 668 669 669 669 669 669 670 672 672 672 673 673 676 677 0 0 0 0 0 0 0 0 0 0 0 0 0 0 0 0 0 0 0 0 0 0 0 0 0 0 0 0 0 0 0 0 0 0 0 0 0 0 0 0 0 0 0 0 0 0 0 0 3602 3602 3602 3602 3602 3602 3640 3640 3602 3640 3640 3679 3679 3640 3640 3640 3640 3602 3602 3602 3640 3640 3640 3640 3679 3679 3679 3679 3679 3679 3679 3679 3640 3602 3602 3565 3565 3528 3493 3493 3493 3493 3458 3458 3458 3458 3423 3423 3390 3390 3390 3390 3390 3357 3357 3357 3357 3324 3324 3293 3293 3262 3262 3262 3262 3262 3231 3231 3231 3231 3201 3201 3143 3143 3143 3115 3172 3115 3143 3143
    0 0 0 0 0 0 0 0 0 0 0 0 0 0 0 0 0 0 0 0 0 0 0 0 0 0 0 0 0 0 0 0 0 0 0 0 0 0 0 0 0 0 0 0 0 0 0 0 0 0 0 0 0 0 0 0 0 0 0 0 0 0 0 0 0 0 0 0 0 0 0 1975 1975 1975 1975 1986 1998 1986 1998 1998 1998 1998 2009 2009 2009 2009 2009 2009 2009 2021 2021 2021 2033 2033 2045 2057 2487 2487 2505 2505 2505 2505 2487 2469 2469 2451 2451 2451 2434 2451 2469 2469 3324 3324 3324 3324 3357 3357 3357 3357 3357 3357 3357 3357 3357 3357 3357 3324 3324 3324 3324 3324 3324 3324 3324 3324 3324 3324 3293 3293 3293 3293 3262 3262 3262 3262 3262 3293 3293 3293 3293 3293 3293 3293 3293 3293 3293 3293 3293 3293 3293 3324 3324 3324 3293 3324 3087 3059 3059 3059 3059 3115 3143 3143 3172 3201 3231 3262 3293 3293 3324 3324 3324 3324 3324 3324 3324 3293 3324 3324 3357 3357 3357 3357 3357 3357 3357 3390 3390 3390 3390 3390 3390 3357 3357 3357 3357 3357 3357 3357 3357 3390 3390 3390 3390 3390 3390 3390 3390 3390 3390 3390 3390 3390 1053 1053 1053 1050 1047 1044 1040 1037 1034 1031 1031 1028 1025 1022 1022 1019 1019 1019 1019 1016 1019 1019 1019 1019 1019 1019 1016 1019 1019 1019 1019 1019 1022 1022 1022 1025 1025 1025 1028 1028 1028 1031 1031 1031 1031 1034 1037 1040 1044 1044 1047 1047 1050 1053 1056 1060 1060 1069 1073 1073 1073 1076 1083 1086 1093 1097 1097 1097 1100 1107 0 0 0 0 0 0 0 0 0 0 0 0 0 0 0 0 0 0 0 0 565 566 567 567 567 568 567 567 568 568 569 569 569 570 570 570 571 571 571 572 573 573 573 573 574 574 575 575 575 576 576 576 577 578 578 579 579 580 580 581 582 584 584 585 586 586 586 586 586 586 587 587 588 588 589 590 590 591 592 592 592 593 594 594 595 595 595 596 596 596 597 598 599 599 599 600 600 600 601 603 604 605 605 605 605 606 607 608 608 608 609 609 609 610 611 612 611 612 612 613 614 614 614 615 615 617 617 618 619 619 620 620 621 621 622 623 623 624 624 625 627 627 628 628 628 629 629 630 629 630 631 632 634 634 634 635 635 636 637 637 638 639 639 641 641 642 643 643 644 644 644 644 644 645 645 647 648 648 649 649 650 651 653 653 654 654 654 655 655 655 658 658 659 660 661 661 661 663 663 664 664 664 665 667 668 668 669 668 668 669 669 670 670 672 673 673 674 677 0 0 0 0 0 0 0 0 0 0 0 0 0 0 0 0 0 0 0 0 0 0 0 0 0 0 0 0 0 0 0 0 0 0 0 0 0 0 0 0 0 0 0 0 0 0 0 0 3602 3602 3602 3602 3602 3602 3602 3602 3602 3640 3640 3640 3640 3640 3602 3602 3602 3602 3602 3602 3640 3640 3640 3640 3679 3679 3679 3679 3679 3679 3679 3679 3602 3602 3565 3565 3528 3528 3493 3493 3493 3493 3493 3493 3458 3458 3423 3423 3390 3390 3390 3390 3357 3357 3357 3357 3324 3324 3293 3262 3262 3262 3262 3262 3262 3262 3231 3231 3231 3201 3201 3201 3201 3143 3143 3172 3172 3172 3143 3143
    0 0 0 0 0 0 0 0 0 0 0 0 0 0 0 0 0 0 0 0 0 0 0 0 0 0 0 0 0 0 0 0 0 0 0 0 0 0 0 0 0 0 0 0 0 0 0 0 0 0 0 0 0 0 0 0 0 0 0 0 0 0 0 0 0 0 0 0 0 0 0 1975 1975 1986 1986 1986 1998 1998 1998 1998 1998 1998 2009 2009 2009 2009 2009 2009 2009 2021 2021 2021 2021 2033 2045 2057 2487 2487 2487 2487 2487 2487 2469 2451 2451 2451 2451 2451 2434 2451 2469 3293 3293 3324 3324 3324 3324 3357 3357 3324 3357 3357 3324 3324 3357 3324 3324 3324 3324 3324 3324 3324 3324 3324 3324 3324 3324 3324 3293 3293 3293 3293 3262 3293 3262 3262 3262 3293 3293 3293 3293 3293 3293 3293 3293 3293 3293 3293 3293 3293 3293 3324 3293 3293 3293 3293 3087 3059 3059 3059 3087 3115 3143 3143 3172 3201 3231 3262 3293 3324 3324 3324 3324 3324 3324 3324 3324 3324 3324 3357 3357 3357 3357 3357 3357 3357 3357 3357 3390 3390 3357 3390 3390 3390 3357 3357 3357 3357 3357 3357 3390 3390 3390 3390 3390 3390 3390 3390 3390 3390 3390 3390 3423 3423 0 1050 1050 1050 1050 1044 1040 1037 1037 1034 1031 1028 1025 1022 1022 1019 1019 1019 1019 1019 1019 1019 1019 1019 1019 1019 1019 1019 1019 1019 1019 1019 1022 1022 1022 1025 1025 1025 1028 1028 1031 1031 1031 1034 1034 1034 1037 1040 1044 1044 1047 1047 1050 1053 1056 1060 1060 1069 1073 1073 1073 1076 1083 1090 1093 1097 1097 1100 1100 0 0 0 0 0 0 0 0 0 0 0 0 0 0 0 0 0 0 0 0 0 0 565 566 566 567 567 566 567 568 568 568 569 569 569 569 570 570 571 571 571 572 573 573 573 574 574 575 575 575 576 576 576 577 577 578 578 579 579 579 580 582 583 584 585 585 586 586 586 586 586 586 587 587 588 588 589 590 590 591 592 592 592 593 594 594 594 595 595 596 596 597 598 598 599 599 600 600 600 601 601 603 604 605 605 605 606 606 607 608 608 609 609 609 610 611 612 611 612 612 612 613 614 614 614 615 617 617 618 618 618 619 620 620 621 622 622 623 624 624 625 625 625 627 628 628 628 629 629 629 630 631 632 634 634 634 634 635 635 636 637 638 639 639 639 639 641 642 643 643 643 644 643 644 644 645 645 647 648 648 649 650 650 651 653 653 654 654 655 654 655 656 656 659 659 660 661 661 661 663 663 664 664 664 665 667 668 668 668 668 668 668 669 670 670 672 673 674 676 0 0 0 0 0 0 0 0 0 0 0 0 0 0 0 0 0 0 0 0 0 0 0 0 0 0 0 0 0 0 0 0 0 0 0 0 0 0 0 0 0 0 0 0 0 0 0 0 3565 3565 3565 3565 3602 3602 3602 3602 3602 3602 3602 3602 3640 3602 3602 3602 3602 3602 3602 3602 3640 3640 3640 3679 3679 3679 3679 3679 3679 3679 3679 3679 3602 3602 3565 3565 3565 3528 3528 3493 3493 3493 3493 3458 3458 3423 3423 3390 3390 3390 3390 3357 3357 3357 3357 3357 3324 3324 3324 3293 3262 3262 3262 3262 3262 3262 3231 3231 3231 3201 3201 3201 3172 3172 3201 3172 3172 3143 3143 3115
    0 0 0 0 0 0 0 0 0 0 0 0 0 0 0 0 0 0 0 0 0 0 0 0 0 0 0 0 0 0 0 0 0 0 0 0 0 0 0 0 0 0 0 0 0 0 0 0 0 0 0 0 0 0 0 0 0 0 0 0 0 0 0 0 0 0 0 0 0 0 0 1986 1986 1986 1986 1986 1998 1986 1998 1998 1998 1998 2009 2009 1998 2009 2009 2009 2009 2021 2021 2021 2021 2021 2021 2487 2487 2487 2487 2469 2469 2469 2469 2451 2451 2451 2434 2434 2434 2451 2451 3262 3262 3293 3293 3324 3324 3324 3324 3324 3324 3324 3324 3324 3324 3324 3324 3324 3324 3324 3324 3324 3324 3324 3324 3324 3324 3324 3293 3293 3293 3293 3293 3293 3293 3262 3262 3293 3293 3293 3293 3293 3293 3293 3324 3293 3293 3293 3293 3324 3324 3324 3324 3293 3293 3293 3087 3059 3059 3059 3087 3115 3143 3143 3172 3201 3201 3262 3293 3324 3324 3324 3324 3324 3324 3324 3324 3324 3324 3357 3357 3390 3390 3357 3357 3357 3390 3390 3357 3357 3357 3390 3357 3357 3357 3357 3357 3357 3357 3357 3357 3390 3390 3390 3390 3390 3390 3390 3390 3390 3423 3423 3423 3033 3033 3033 1050 1050 1050 1044 1040 1040 1037 1034 1034 1028 1025 1025 1025 1022 1022 1022 1022 1022 1022 1019 1019 1019 1019 1019 1019 1019 1019 1019 1019 1022 1022 1022 1022 1025 1025 1025 1028 1028 1031 1031 1034 1034 1037 1037 1037 1040 1044 1044 1047 1047 1050 1053 1056 1060 1069 1069 1073 1073 1073 1076 1086 1090 1093 1097 1097 1100 1100 0 0 0 0 0 0 0 0 0 0 0 0 0 0 0 0 0 0 0 0 0 0 0 565 565 566 566 566 567 568 568 568 568 569 569 569 569 570 570 570 571 572 572 573 573 573 574 575 575 575 575 576 576 576 577 577 578 578 579 579 580 581 582 583 584 584 585 585 585 585 585 586 586 587 587 588 589 589 590 590 591 592 592 593 593 594 594 595 595 596 596 596 598 598 599 599 600 600 600 601 601 603 604 604 605 605 606 606 607 607 608 609 609 609 610 610 611 611 611 612 612 613 614 614 614 615 617 617 617 618 618 619 619 620 621 621 621 622 623 623 624 624 625 627 627 627 628 629 629 629 630 631 631 632 632 634 634 635 635 636 636 637 638 638 639 639 639 641 642 643 643 643 643 643 643 644 644 647 647 648 648 649 650 650 651 653 653 654 654 654 654 655 656 658 658 658 660 661 661 663 663 663 663 664 664 665 667 668 668 668 668 669 669 670 670 672 673 674 674 0 0 0 0 0 0 0 0 0 0 0 0 0 0 0 0 0 0 0 0 0 0 0 0 0 0 0 0 0 0 0 0 0 0 0 0 0 0 0 0 0 0 0 0 0 0 0 0 3640 3602 3602 3602 3602 3602 3602 3602 3565 3602 3565 3602 3602 3602 3602 3602 3602 3602 3602 3602 3640 3640 3640 3679 3679 3679 3679 3679 3679 3679 3679 3679 3602 3565 3565 3565 3528 3528 3528 3493 3493 3493 3493 3458 3458 3423 3423 3390 3390 3390 3390 3357 3357 3357 3357 3324 3324 3324 3293 3293 3293 3293 3262 3262 3262 3262 3231 3231 3231 3231 3201 3201 3172 3172 3172 3143 3143 3115 3115 3115
    0 0 0 0 0 0 0 0 0 0 0 0 0 0 0 0 0 0 0 0 0 0 0 0 0 0 0 0 0 0 0 0 0 0 0 0 0 0 0 0 0 0 0 0 0 0 0 0 0 0 0 0 0 0 0 0 0 0 0 0 0 0 0 0 0 0 0 0 0 0 0 1986 1975 1986 1986 1986 1998 1986 1998 1998 1998 1998 1998 1998 1998 1998 2009 2009 2009 2021 2021 2021 2021 2021 2021 2505 2505 2505 2487 2469 2469 2469 2451 2451 2451 2451 2434 2451 2434 2451 2469 3201 3201 3262 3293 3324 3324 3357 3324 3324 3324 3324 3324 3324 3324 3324 3324 3324 3324 3324 3324 3324 3324 3324 3324 3324 3324 3324 3293 3293 3293 3293 3293 3293 3293 3262 3262 3262 3293 3293 3293 3293 3293 3293 3324 3293 3293 3293 3293 3293 3293 3293 3293 3293 3293 3293 3059 3059 3059 3059 3087 3115 3143 3143 3172 3172 3201 3231 3293 3293 3293 3293 3293 3293 3293 3324 3293 3293 3293 3357 3357 3357 3390 3357 3357 3357 3390 3390 3357 3357 3357 3357 3357 3357 3357 3357 3324 3357 3357 3357 3357 3357 3357 3357 3390 3390 3390 3390 3390 3390 3390 3390 3033 3033 3033 3033 3059 1053 1050 1047 1044 1040 1040 1037 1034 1031 1028 1025 1025 1022 1022 1022 1022 1022 1022 1022 1022 1022 1022 1019 1019 1019 1019 1019 1019 1022 1022 1022 1022 1025 1025 1025 1028 1031 1031 1034 1034 1034 1037 1037 1040 1044 1044 1047 1047 1047 1050 1053 1056 1060 1060 1069 1073 1073 1076 1083 1086 1090 1093 1097 1097 1100 1104 0 0 0 0 0 0 0 0 0 0 0 0 0 0 0 0 0 0 0 0 0 563 563 565 564 565 566 565 566 567 567 568 568 569 568 568 569 569 569 570 571 571 572 572 573 573 573 574 574 575 575 575 576 576 576 576 577 578 579 579 580 581 582 583 584 584 584 585 585 585 585 586 586 587 587 587 588 588 589 590 591 591 592 592 593 593 594 594 595 595 596 596 597 598 598 599 599 599 600 600 600 601 603 604 604 604 605 606 606 607 607 608 608 609 609 610 611 611 611 612 612 613 614 614 615 615 615 617 617 617 617 618 618 619 620 620 621 621 622 622 623 623 624 625 627 627 628 629 629 629 629 630 630 631 631 634 634 635 635 635 636 637 638 638 638 639 639 641 642 642 642 643 643 643 643 644 644 647 647 648 648 649 649 650 651 653 653 653 654 654 654 655 655 658 658 658 659 660 661 661 663 663 663 664 664 665 667 668 667 668 668 668 669 669 670 672 672 673 673 0 0 0 0 0 0 0 0 0 0 0 0 0 0 0 0 0 0 0 0 0 0 0 0 0 0 0 0 0 0 0 0 0 0 0 0 0 0 0 0 0 0 0 0 0 0 0 3602 3640 3602 3602 3602 3602 3602 3602 3602 3602 3602 3602 3602 3602 3602 3602 3602 3602 3602 3640 3640 3640 3640 3640 3679 3679 3679 3679 3679 3679 3679 3679 3679 3602 3602 3565 3565 3528 3528 3528 3493 3493 3493 3458 3423 3423 3423 3390 3390 3390 3390 3390 3357 3357 3357 3357 3324 3324 3324 3293 3293 3293 3293 3262 3262 3262 3262 3231 3231 3231 3231 3201 3201 3201 3201 3172 3172 3143 3143 3115 3115
    0 0 0 0 0 0 0 0 0 0 0 0 0 0 0 0 0 0 0 0 0 0 0 0 0 0 0 0 0 0 0 0 0 0 0 0 0 0 0 0 0 0 0 0 0 0 0 0 0 0 0 0 0 0 0 0 0 0 0 0 0 0 0 0 0 0 0 0 0 0 0 1998 1998 1986 1986 1986 1986 1986 1986 1998 1998 1998 1998 1998 1998 1998 2009 2009 2009 2009 2009 2021 2021 2033 2021 2033 2487 2469 2469 2451 2451 2451 2434 2434 2434 2434 2434 2434 2417 2434 2434 3201 3262 3262 3293 3324 3324 3324 3324 3324 3324 3324 3324 3293 3324 3324 3324 3324 3324 3324 3324 3324 3324 3324 3324 3324 3324 3324 3293 3293 3293 3293 3293 3293 3293 3262 3262 3293 3293 3293 3293 3293 3293 3293 3324 3293 3293 3293 3293 3293 3293 3293 3293 3293 3293 3262 3059 3033 3033 3059 3087 3115 3115 3143 3143 3172 3172 3201 3262 3293 3293 3293 3293 3293 3293 3293 3293 3357 3357 3390 3390 3390 3357 3390 3390 3390 3390 3390 3390 3357 3357 3357 3324 3324 3324 3293 3293 3324 3324 3357 3357 3357 3357 3357 3390 3390 3390 3390 3357 3357 3357 3059 3059 3059 3059 3059 3087 1050 1050 1047 1044 1044 1040 1040 1034 1031 1028 1025 1025 1025 1022 1022 1022 1025 1022 1022 1022 1022 1019 1019 1019 1019 1019 1019 1022 1022 1022 1022 1022 1025 1025 1025 1028 1031 1031 1034 1034 1037 1037 1037 1040 1044 1044 1047 1047 1047 1050 1053 1056 1056 1060 1073 1076 1076 1079 1086 1090 1093 1097 1097 1100 1100 1104 0 0 0 0 0 0 0 0 0 0 0 0 0 0 0 0 0 0 0 0 0 563 563 563 563 564 565 565 566 567 567 568 568 568 568 568 568 569 569 569 570 570 571 571 572 573 573 573 574 574 575 575 575 575 576 576 577 577 578 579 580 580 581 582 583 584 584 584 584 585 585 585 586 587 587 587 588 588 589 590 591 591 592 592 592 593 593 594 595 595 596 596 597 597 598 599 599 599 599 600 600 600 603 603 603 604 605 605 606 606 607 608 608 609 609 610 610 610 611 611 612 612 613 614 614 615 615 615 617 617 617 618 618 619 620 620 620 621 621 622 623 622 624 625 627 627 628 628 628 629 629 630 630 631 631 632 634 634 635 635 636 637 637 638 638 638 639 639 641 642 642 642 642 643 643 643 644 645 647 647 648 649 649 650 650 651 653 653 653 654 654 654 655 656 656 658 658 659 660 660 661 663 663 663 664 664 665 667 667 667 668 668 669 669 670 672 672 673 673 0 0 0 0 0 0 0 0 0 0 0 0 0 0 0 0 0 0 0 0 0 0 0 0 0 0 0 0 0 0 0 0 0 0 0 0 0 0 0 0 0 0 0 0 0 0 0 3528 3602 3565 3602 3602 3602 3602 3602 3602 3602 3602 3602 3602 3602 3602 3602 3602 3602 3640 3640 3640 3640 3679 3640 3679 3679 3679 3679 3679 3679 3679 3640 3640 3602 3602 3565 3565 3528 3528 3528 3493 3493 3493 3458 3423 3423 3390 3390 3390 3390 3390 3390 3390 3357 3357 3357 3324 3324 3293 3293 3293 3293 3293 3293 3293 3262 3262 3262 3262 3231 3231 3201 3201 3201 3201 3201 3172 3172 3143 3115 3115
    0 0 0 0 0 0 0 0 0 0 0 0 0 0 0 0 0 0 0 0 0 0 0 0 0 0 0 0 0 0 0 0 0 0 0 0 0 0 0 0 0 0 0 0 0 0 0 0 0 0 0 0 0 0 0 0 0 0 0 0 0 0 0 0 0 0 0 0 0 0 0 1998 1998 1986 1986 1986 1986 1986 1986 1986 1998 1998 1998 1998 1998 2009 2009 2009 2009 2021 2021 2021 2021 2033 2033 2451 2451 2417 2451 2451 2434 2434 2417 2417 2417 2434 2417 2417 2417 2434 2434 3201 3201 3231 3293 3293 3324 3324 3324 3324 3324 3324 3293 3293 3324 3324 3293 3324 3324 3324 3324 3324 3324 3324 3324 3324 3324 3324 3293 3293 3293 3293 3293 3293 3293 3293 3262 3262 3293 3293 3293 3293 3293 3324 3324 3293 3293 3293 3293 3293 3293 3293 3293 3293 3293 3059 3059 3033 3033 3059 3059 3087 3087 3115 3115 3115 3115 3143 3231 3231 3033 3033 3059 3059 3059 3033 3033 3033 3033 3059 3059 3390 3390 3390 3390 3390 3390 3390 3390 3357 3357 3357 3324 3293 3293 3262 3262 3262 3293 3324 3293 3324 3293 3357 3357 3390 3390 3357 3087 3087 3059 3059 3059 3059 3059 3087 3087 1053 1053 1050 1047 1044 1044 1040 1037 1031 1028 1025 1025 1022 1022 1022 1022 1022 1022 1022 1022 1022 1022 1019 1019 1019 1019 1019 1022 1022 1022 1022 1022 1022 1025 1025 1031 1028 1034 1034 1034 1037 1037 1037 1040 1044 1044 1047 1047 1050 1053 1056 1056 1060 1069 1073 1076 1079 1083 1086 1090 1093 1093 1097 1100 1100 1104 0 0 0 0 0 0 0 0 0 0 0 0 0 0 0 0 0 0 0 0 0 562 563 563 563 564 565 564 565 566 566 567 568 568 568 568 568 568 569 569 569 570 571 571 572 573 573 573 573 574 574 575 575 575 576 576 577 577 578 579 580 580 581 581 583 583 584 584 584 584 584 585 586 586 586 587 588 588 589 590 590 591 591 592 592 593 593 593 594 595 595 596 596 597 597 598 599 599 599 600 600 600 601 601 603 604 604 605 605 606 607 607 608 608 609 609 610 610 610 611 612 612 613 613 614 614 614 615 615 615 617 617 618 618 619 620 620 621 621 621 623 622 623 624 625 625 627 628 628 629 629 629 630 630 631 631 632 632 634 635 635 636 637 637 638 638 638 639 641 641 642 642 642 643 643 643 644 644 645 647 648 648 649 649 650 651 651 653 653 653 654 654 654 655 655 656 656 658 659 660 661 661 663 663 663 664 665 665 665 667 667 668 668 669 670 670 672 673 672 0 0 0 0 0 0 0 0 0 0 0 0 0 0 0 0 0 0 0 0 0 0 0 0 0 0 0 0 0 0 0 0 0 0 0 0 0 0 0 0 0 0 0 0 0 0 0 3565 3602 3602 3602 3602 3602 3602 3565 3602 3565 3565 3565 3565 3565 3565 3602 3602 3602 3640 3640 3640 3640 3679 3679 3679 3640 3640 3640 3679 3679 3679 3640 3640 3602 3602 3565 3565 3528 3528 3528 3528 3493 3493 3493 3458 3423 3423 3390 3390 3390 3390 3390 3390 3357 3357 3357 3324 3293 3293 3293 3293 3293 3293 3293 3293 3293 3262 3262 3262 3231 3231 3201 3201 3201 3201 3201 3172 3172 3143 3115 3115
    0 0 0 0 0 0 0 0 0 0 0 0 0 0 0 0 0 0 0 0 0 0 0 0 0 0 0 0 0 0 0 0 0 0 0 0 0 0 0 0 0 0 0 0 0 0 0 0 0 0 0 0 0 0 0 0 0 0 0 0 0 0 0 0 0 0 0 0 0 0 1986 1998 1986 1986 1986 1986 1986 1986 1986 1986 1998 1998 1998 1998 1998 2009 2009 2009 2009 2009 2009 2021 2021 2021 2021 2434 2434 2451 2451 2434 2417 2417 2417 2417 2417 2417 2417 2417 2417 2434 2434 3201 3201 3231 3293 3293 3293 3324 3324 3324 3324 3324 3324 3293 3324 3293 3293 3324 3324 3324 3324 3324 3324 3324 3324 3324 3324 3324 3293 3293 3293 3293 3293 3293 3293 3262 3262 3262 3293 3293 3293 3293 3293 3293 3324 3293 3293 3293 3293 3293 3293 3293 3293 3293 3262 3262 3033 3033 3033 3059 3059 3087 3059 3087 3087 3087 3059 3059 3033 3006 3033 3033 3059 3059 3059 3033 3033 3033 3059 3059 3059 3059 3033 3390 3390 3390 3390 3390 3390 3357 3324 3262 3262 3231 3231 3143 3087 3143 3293 3087 3231 3262 3201 3231 3231 3059 3059 3059 3059 3059 3059 3059 3059 3059 3059 3059 3059 1053 1053 1050 1047 1047 1044 1044 1037 1031 1028 1025 1025 1022 1022 1022 1022 1022 1022 1022 1022 1022 1022 1022 1019 1019 1019 1019 1022 1022 1022 1022 1022 1022 1025 1028 1031 1031 1034 1034 1037 1037 1040 1040 1040 1044 1044 1047 1047 1050 1053 1056 1056 1069 1069 1073 1076 1079 1083 1086 1090 1093 1097 1097 1100 1104 0 0 0 0 0 0 0 0 0 0 0 0 0 0 0 0 0 0 0 0 0 0 562 562 563 563 564 565 564 565 566 566 567 567 568 567 567 568 569 569 569 569 569 570 571 571 571 572 573 573 573 573 574 575 575 576 576 577 578 578 579 579 580 580 581 582 583 583 584 584 584 584 585 585 586 586 587 587 588 588 589 590 590 591 591 592 592 592 593 594 594 595 595 596 596 597 598 598 599 599 599 599 600 600 601 601 603 604 605 605 605 606 607 607 608 608 609 609 609 609 610 611 611 612 613 613 613 614 614 615 615 615 617 617 617 618 619 619 620 621 621 622 621 622 623 624 625 627 628 628 628 629 629 629 630 630 631 631 634 634 635 635 636 637 637 637 638 638 639 639 641 642 642 642 642 643 643 643 644 645 647 648 648 649 649 650 650 651 651 653 653 653 654 654 655 655 656 655 656 658 659 660 661 661 663 663 664 664 665 664 665 667 667 668 669 669 670 670 672 670 672 0 0 0 0 0 0 0 0 0 0 0 0 0 0 0 0 0 0 0 0 0 0 0 0 0 0 0 0 0 0 0 0 0 0 0 0 0 0 0 0 0 0 0 0 0 0 0 0 3565 3565 3565 3565 3565 3565 3565 3565 3565 3565 3565 3565 3602 3602 3602 3640 3640 3679 3679 3640 3679 3640 3640 3640 3640 3640 3640 3679 3640 3640 3640 3602 3602 3565 3565 3528 3528 3528 3528 3493 3493 3493 3458 3458 3423 3390 3390 3390 3390 3390 3357 3357 3357 3357 3293 3293 3293 3293 3293 3293 3293 3293 3293 3293 3262 3262 3231 3231 3201 3201 3201 3201 3172 3172 3143 3143 3115 3115 3115
    0 0 0 0 0 0 0 0 0 0 0 0 0 0 0 0 0 0 0 0 0 0 0 0 0 0 0 0 0 0 0 0 0 0 0 0 0 0 0 0 0 0 0 0 0 0 0 0 0 0 0 0 0 0 0 0 0 0 0 0 0 0 0 0 0 0 0 0 0 0 1975 1998 1986 1986 1986 1986 1986 1986 1986 1986 1998 1998 1998 1998 1998 2009 2009 2009 2009 2021 2021 2021 2021 2033 2033 2469 2469 2451 2451 2451 2417 2417 2434 2417 2417 2434 2417 2417 2434 2434 3293 3293 3293 3293 3324 3324 3324 3324 3324 3324 3324 3324 3324 3293 3324 3293 3293 3324 3324 3324 3324 3324 3324 3324 3324 3324 3324 3324 3293 3293 3293 3293 3293 3293 3293 3293 3262 3262 3293 3293 3293 3293 3293 3293 3293 3293 3293 3293 3293 3293 3293 3293 3293 3293 3262 3059 3059 3033 3033 3059 3059 3059 3059 3059 3059 3059 3033 3006 2980 2980 3006 3033 3033 3033 3033 3033 3006 3033 3033 3033 3059 3059 3033 3059 3059 3115 3293 3262 3293 3293 3172 3201 3172 3143 3115 3115 3115 3115 3087 3059 3059 3059 3059 3059 3059 3059 3059 3059 3059 3059 3059 3033 3059 3059 3059 3059 3087 3087 3143 1050 1047 1044 1044 1040 1037 1034 1031 1028 1028 1025 1022 1022 1022 1022 1022 1022 1022 1022 1019 1019 1019 1019 1022 1019 1022 1022 1022 1022 1022 1022 1025 1025 1031 1031 1034 1034 1037 1040 1040 1040 1044 1044 1047 1047 1047 1050 1053 1056 1060 1069 1073 1073 1076 1079 1083 1086 1090 1093 1097 1100 1100 0 0 0 0 0 0 0 0 0 0 0 0 0 0 0 0 0 0 0 0 0 0 0 0 562 563 563 564 565 564 565 566 566 567 567 568 567 567 568 569 568 569 569 569 570 570 571 571 572 572 573 573 573 574 574 575 575 576 577 577 578 579 579 580 580 580 581 582 583 583 584 584 584 585 585 586 586 587 587 588 588 588 589 590 591 591 591 592 592 592 593 594 595 595 596 596 597 597 598 598 599 599 599 599 600 600 601 603 603 604 604 605 605 606 607 607 608 609 609 609 609 610 611 611 612 612 613 613 613 614 614 615 615 615 615 617 618 618 619 620 620 621 621 621 622 623 623 624 625 625 627 627 628 629 629 630 630 630 630 630 631 635 635 636 636 637 637 638 638 638 639 639 641 641 642 642 642 643 643 644 644 645 647 648 648 649 650 650 650 651 651 653 653 653 654 654 654 654 655 656 658 659 659 660 661 661 663 663 664 664 664 664 665 667 668 668 669 669 669 670 669 670 0 0 0 0 0 0 0 0 0 0 0 0 0 0 0 0 0 0 0 0 0 0 0 0 0 0 0 0 0 0 0 0 0 0 0 0 0 0 0 0 0 0 0 0 0 0 0 0 0 3602 3602 3565 3565 3565 3602 3565 3565 3565 3565 3565 3602 3602 3602 3640 3640 3679 3640 3640 3640 3602 3602 3602 3602 3602 3640 3640 3640 3640 3640 3602 3602 3565 3565 3528 3528 3528 3528 3493 3493 3493 3423 3423 3390 3390 3390 3390 3390 3390 3357 3357 3324 3357 3293 3293 3293 3293 3293 3293 3293 3293 3293 3293 3262 3262 3231 3201 3201 3201 3201 3172 3172 3172 3143 3143 3115 3115 3115
    0 0 0 0 0 0 0 0 0 0 0 0 0 0 0 0 0 0 0 0 0 0 0 0 0 0 0 0 0 0 0 0 0 0 0 0 0 0 0 0 0 0 0 0 0 0 0 0 0 0 0 0 0 0 0 0 0 0 0 0 0 0 0 0 0 0 0 0 0 0 1986 1998 1986 1986 1986 1986 1986 1986 1986 1986 1998 1998 1998 1998 1998 2009 2009 2009 2009 2021 2021 2021 2033 2033 2469 2469 2469 2451 2451 2451 2434 2434 2434 2417 2434 2434 2434 2434 2451 3201 3201 3324 3231 3293 3324 3324 3324 3324 3324 3293 3324 3324 3324 3293 3324 3324 3324 3324 3324 3324 3324 3324 3324 3324 3324 3324 3324 3324 3293 3293 3293 3293 3293 3293 3293 3293 3293 3293 3293 3293 3293 3293 3293 3293 3293 3293 3293 3293 3293 3293 3293 3293 3293 3262 3231 3115 3059 3033 3059 3059 3059 3059 3059 3059 3033 3033 3006 3006 3006 3006 3033 3033 3033 3033 3033 3033 3033 3033 3033 3033 3033 3033 3033 3033 3059 3059 3059 3059 3087 3059 3087 3115 3115 3087 3087 3087 3087 3087 3059 3059 3059 3033 3059 3059 3059 3033 3059 3059 3059 3087 3059 3059 3059 3059 3059 3087 3087 3087 1050 1050 1047 1047 1044 1044 1040 1037 1034 1028 1028 1025 1025 1022 1022 1022 1022 1022 1019 1019 1019 1019 1019 1019 1019 1019 1019 1019 1022 1022 1022 1022 1025 1028 1028 1031 1034 1034 1037 1037 1040 1040 1044 1044 1047 1047 1047 1050 1053 1056 1060 1069 1073 1076 1079 1083 1083 1086 1090 1093 1097 1100 1104 0 0 0 0 0 0 0 0 0 0 0 0 0 0 0 0 0 0 0 0 0 0 0 0 562 563 563 564 565 564 565 566 566 566 567 568 567 567 567 569 568 569 569 569 570 571 571 571 572 572 572 573 573 574 574 575 575 576 576 577 578 579 579 579 580 580 581 582 582 583 583 584 584 584 585 585 586 586 587 587 588 588 589 589 590 591 591 592 592 592 593 593 594 595 595 596 597 597 598 598 599 599 599 599 600 600 601 601 603 604 604 605 605 606 606 607 608 608 609 609 609 610 610 611 611 612 613 612 613 613 614 614 615 615 615 617 617 618 619 620 620 621 621 621 622 623 623 624 625 625 625 627 628 628 629 629 629 630 630 630 630 634 634 635 636 636 637 637 637 638 638 639 639 639 641 639 642 643 643 644 644 645 647 647 648 648 649 649 650 651 651 653 653 653 653 654 654 654 655 656 658 658 659 659 660 661 661 663 664 664 663 664 667 667 667 668 668 669 669 669 669 669 0 0 0 0 0 0 0 0 0 0 0 0 0 0 0 0 0 0 0 0 0 0 0 0 0 0 0 0 0 0 0 0 0 0 0 0 0 0 0 0 0 0 0 0 0 0 0 0 0 3640 3602 3565 3565 3565 3565 3565 3565 3565 3565 3565 3602 3602 3602 3640 3640 3640 3640 3640 3640 3602 3565 3565 3602 3602 3602 3602 3602 3602 3640 3602 3602 3565 3565 3528 3528 3528 3528 3493 3493 3493 3423 3423 3390 3390 3390 3390 3390 3390 3357 3357 3357 3357 3324 3324 3324 3293 3293 3293 3324 3293 3293 3262 3262 3262 3231 3201 3201 3201 3201 3172 3172 3143 3143 3143 3115 3115 3115
    0 0 0 0 0 0 0 0 0 0 0 0 0 0 0 0 0 0 0 0 0 0 0 0 0 0 0 0 0 0 0 0 0 0 0 0 0 0 0 0 0 0 0 0 0 0 0 0 0 0 0 0 0 0 0 0 0 0 0 0 0 0 0 0 0 0 0 0 0 0 1986 1998 1975 1986 1986 1986 1986 1986 1986 1986 1998 1998 1998 1998 1998 1998 2009 2009 2009 2009 2021 2021 2021 2021 2469 2469 2469 2469 2451 2451 2434 2434 2417 2417 2417 2417 2417 2434 2434 3231 3231 3262 3231 3293 3324 3324 3324 3324 3324 3324 3324 3324 3324 3324 3324 3324 3324 3324 3324 3324 3324 3324 3324 3324 3324 3324 3324 3324 3293 3293 3293 3293 3293 3293 3293 3293 3293 3293 3293 3293 3293 3293 3293 3293 3293 3293 3293 3293 3293 3293 3293 3293 3293 3262 3231 3172 3087 3059 3059 3059 3059 3059 3059 3033 3033 3033 3006 3006 3006 3006 3033 3033 3033 3033 3059 3033 3033 3033 3033 3033 3033 3059 3059 3033 3059 3059 3059 3059 3059 3059 3087 3087 3087 3059 3059 3059 3059 3059 3033 3033 3033 3033 3033 3059 3059 3059 3059 3059 3059 3059 3059 3033 3033 3059 3059 3087 3087 1056 1056 1053 1050 1047 1044 1044 1044 1037 1034 1031 1028 1025 1025 1022 1022 1022 1022 1022 1019 1019 1019 1019 1019 1019 1019 1019 1019 1019 1022 1022 1022 1022 1025 1028 1028 1031 1031 1034 1037 1040 1044 1040 1044 1044 1047 1047 1050 1050 1056 1060 1060 1073 1076 1076 1083 1083 1086 1090 1093 1097 1097 1100 1104 1111 1114 0 0 0 0 0 0 0 0 0 0 0 0 0 0 0 0 0 0 0 0 0 0 562 563 563 564 564 564 565 565 566 566 567 567 567 567 567 568 568 569 569 569 570 571 572 571 572 572 573 573 573 574 574 574 575 576 576 577 578 578 579 579 579 580 580 581 582 582 583 583 584 584 584 585 585 585 586 587 587 588 588 589 590 590 591 591 591 592 592 593 593 594 595 596 596 596 597 598 598 599 599 599 599 600 600 600 601 603 604 604 605 605 606 606 607 608 608 608 608 609 610 611 611 612 612 612 612 613 613 613 614 614 615 615 617 618 619 619 620 621 621 622 622 623 623 624 624 625 625 627 627 628 628 629 629 629 630 630 630 632 634 635 635 636 636 637 637 638 638 638 639 639 639 639 639 642 642 643 643 644 645 647 647 648 649 649 649 650 651 651 651 651 653 653 654 654 655 656 656 658 658 659 660 660 661 661 663 663 661 663 665 667 667 668 668 669 669 669 668 669 0 0 0 0 0 0 0 0 0 0 0 0 0 0 0 0 0 0 0 0 0 0 0 0 0 0 0 0 0 0 0 0 0 0 0 0 0 0 0 0 0 0 0 0 0 0 0 0 0 3640 3602 3602 3602 3565 3565 3565 3565 3565 3565 3565 3602 3602 3602 3602 3640 3640 3602 3602 3602 3602 3565 3565 3565 3565 3602 3602 3565 3602 3602 3565 3565 3565 3528 3528 3528 3528 3528 3493 3493 3493 3458 3423 3390 3390 3390 3390 3390 3390 3357 3357 3357 3357 3324 3324 3324 3293 3293 3293 3324 3293 3293 3262 3262 3262 3231 3231 3201 3201 3201 3172 3172 3143 3143 3143 3115 3115 3087
    0 0 0 0 0 0 0 0 0 0 0 0 0 0 0 0 0 0 0 0 0 0 0 0 0 0 0 0 0 0 0 0 0 0 0 0 0 0 0 0 0 0 0 0 0 0 0 0 0 0 0 0 0 0 0 0 0 0 0 0 0 0 0 0 0 0 0 0 0 1964 1986 1986 1975 1975 1986 1986 1986 1986 1986 1986 1986 1998 1998 1998 1998 1998 2009 2009 2009 2021 2009 2021 2021 2021 2451 2451 2451 2451 2451 2451 2434 2434 2417 2417 2417 2417 2417 2451 2451 3231 3231 3262 3324 3324 3324 3324 3324 3324 3324 3324 3324 3324 3324 3324 3324 3324 3324 3324 3324 3324 3324 3324 3324 3324 3324 3324 3324 3324 3293 3293 3293 3293 3293 3293 3293 3293 3293 3293 3293 3293 3293 3293 3293 3293 3293 3293 3293 3293 3293 3293 3293 3293 3293 3262 3262 3231 3143 3059 3059 3059 3059 3059 3033 3033 3033 3033 3006 3006 3006 3006 3033 3033 3059 3059 3059 3059 3033 3033 3033 3033 3033 3059 3059 3033 3059 3059 3059 3059 3059 3059 3059 3087 3059 3059 3059 3059 3059 3059 3033 3033 3033 3033 3033 3033 3059 3033 3033 3033 3033 3059 3059 3059 3033 3059 3059 3087 3087 3087 1053 1053 1050 1047 1044 1044 1044 1040 1037 1031 1028 1025 1022 1022 1022 1022 1019 1019 1019 1019 1019 1019 1019 1019 1019 1019 1019 1019 1022 1022 1022 1022 1025 1028 1028 1031 1031 1034 1037 1040 1040 1040 1044 1044 1047 1050 1050 1053 1056 1060 1063 1073 1076 1079 1083 1083 1086 1090 1093 1097 1100 1104 1107 1111 1114 0 0 0 0 0 0 0 0 0 0 0 0 0 0 0 0 0 0 0 0 0 0 562 563 563 564 564 564 565 565 565 566 566 567 567 567 567 568 568 569 569 570 570 571 571 571 572 572 573 573 573 573 573 574 575 575 576 576 577 578 578 579 579 579 580 580 581 582 583 583 583 584 584 584 585 585 585 586 587 587 588 588 589 589 590 591 591 591 592 593 593 594 594 595 596 596 597 597 598 598 599 599 599 599 600 600 600 601 603 604 605 605 605 606 606 607 608 607 608 608 609 610 610 611 612 611 612 612 612 613 613 614 615 615 617 618 618 619 620 621 621 621 622 622 623 624 624 625 625 625 627 627 628 629 629 629 630 630 630 632 634 634 635 635 636 636 636 637 638 638 638 639 639 639 639 641 642 643 643 644 645 645 647 648 649 649 649 650 651 651 651 651 653 653 654 654 655 655 656 658 658 659 659 660 660 661 663 663 661 663 663 667 667 668 668 668 668 669 668 668 0 0 0 0 0 0 0 0 0 0 0 0 0 0 0 0 0 0 0 0 0 0 0 0 0 0 0 0 0 0 0 0 0 0 0 0 0 0 0 0 0 0 0 0 0 0 0 0 0 3602 3565 3565 3565 3565 3565 3565 3565 3565 3602 3565 3602 3602 3602 3602 3640 3640 3528 3640 3602 3602 3602 3602 3565 3565 3602 3602 3602 3565 3602 3565 3565 3528 3528 3528 3528 3528 3528 3493 3493 3493 3458 3458 3423 3423 3423 3423 3423 3390 3390 3357 3357 3357 3357 3324 3324 3293 3293 3293 3293 3293 3293 3262 3262 3231 3231 3231 3201 3201 3201 3201 3172 3172 3143 3143 3115 3115 3087
    0 0 0 0 0 0 0 0 0 0 0 0 0 0 0 0 0 0 0 0 0 0 0 0 0 0 0 0 0 0 0 0 0 0 0 0 0 0 0 0 0 0 0 0 0 0 0 0 0 0 0 0 0 0 0 0 0 0 0 0 0 0 0 0 0 0 0 0 0 1975 1986 1986 1975 1975 1975 1975 1986 1986 1986 1986 1986 1998 1998 1998 1998 1998 2009 2009 2009 2009 2009 2021 2009 2009 2451 2451 2451 2451 2434 2451 2400 2400 2400 2400 2417 2417 2417 2417 3293 3293 3293 3324 3324 3324 3324 3324 3324 3324 3324 3324 3324 3324 3324 3324 3324 3324 3324 3324 3324 3324 3324 3324 3293 3324 3324 3324 3324 3324 3293 3293 3293 3293 3293 3293 3293 3293 3293 3293 3293 3293 3293 3293 3293 3293 3293 3293 3293 3293 3293 3293 3293 3293 3293 3262 3262 3262 3201 3115 3059 3087 3087 3087 3059 3059 3033 3059 3033 3033 3033 3033 3059 3059 3059 3059 3059 3059 3059 3033 3033 3033 3033 0 3033 3059 3059 3059 3033 3033 3059 3059 3059 3059 3059 3059 3059 3059 3059 3059 3033 3059 3033 3033 3033 3033 3059 3033 3033 3033 3033 3059 3059 3059 3059 3059 3087 3115 3115 3115 3087 1047 1047 1047 1047 1044 1044 1040 1037 1031 1028 1025 1022 1022 1022 1019 1019 1019 1019 1019 1016 1019 1019 1019 1019 1019 1019 1019 1019 1019 1022 1022 1025 1028 1028 1031 1031 1034 1037 1040 1040 1044 1044 1047 1047 1053 1053 1056 1060 1063 1066 1069 1076 1079 1083 1086 1086 1090 1093 1097 1100 1104 1107 1107 1111 1114 0 0 0 0 0 0 0 0 0 0 0 0 0 0 0 0 0 0 0 0 0 562 562 563 564 564 564 565 565 565 566 566 567 567 567 567 567 568 569 569 570 571 571 572 572 572 572 573 573 573 573 573 574 575 575 576 576 577 577 578 578 578 579 580 580 581 581 582 583 583 583 584 584 584 585 585 586 586 587 588 588 588 589 590 590 590 591 592 592 593 593 594 595 595 596 596 597 598 598 598 599 599 599 599 600 600 601 603 604 604 605 605 605 606 606 607 607 607 608 609 610 610 610 611 611 611 612 612 612 613 613 614 615 617 617 618 618 619 620 620 621 621 622 622 623 624 624 625 625 627 627 628 629 629 629 629 630 630 631 632 634 634 635 635 635 636 636 637 637 638 638 638 639 639 639 642 642 642 643 644 645 645 647 648 648 649 650 650 651 651 651 651 653 653 653 654 655 655 656 656 658 659 659 660 660 661 661 661 661 663 663 665 668 668 668 668 668 668 668 0 0 0 0 0 0 0 0 0 0 0 0 0 0 0 0 0 0 0 0 0 0 0 0 0 0 0 0 0 0 0 0 0 0 0 0 0 0 0 0 0 0 0 0 0 0 0 0 0 3602 3565 3565 3565 3565 3565 3565 3565 3565 3565 3565 3602 3602 3602 3602 3640 3640 3602 3602 3602 3640 3602 3602 3565 3602 3602 3602 3602 3602 3602 3565 3565 3528 3528 3528 3528 3528 3528 3493 3493 3493 3493 3493 3423 3423 3423 3423 3423 3390 3390 3390 3357 3357 3357 3324 3324 3293 3293 3293 3293 3293 3262 3262 3231 3231 3231 3201 3201 3201 3201 3172 3172 3172 3143 3143 3115 3115 3087
    0 0 0 0 0 0 0 0 0 0 0 0 0 0 0 0 0 0 0 0 0 0 0 0 0 0 0 0 0 0 0 0 0 0 0 0 0 0 0 0 0 0 0 0 0 0 0 0 0 0 0 0 0 0 0 0 0 0 0 0 0 0 0 0 0 0 0 0 0 1964 1975 1975 1975 1975 1975 1975 1986 1986 1986 1986 1986 1998 1998 1998 1998 1998 2009 2009 2009 2009 2009 2009 2009 2451 2451 2451 2451 2451 2434 2451 2400 2400 2400 2400 2400 2417 2434 2434 0 3293 3293 3324 3324 3324 3324 3324 3324 3324 3324 3324 3324 3324 3324 3324 3324 3324 3324 3324 3324 3324 3324 3293 3293 3293 3293 3324 3293 3324 3293 3293 3293 3293 3293 3293 3293 3293 3293 3293 3293 3293 3293 3293 3293 3293 3293 3293 3293 3293 3293 3293 3293 3293 3293 3293 3262 3262 3262 3231 3231 3262 3231 3231 3262 3262 3262 3172 0 0 0 0 0 0 3059 3059 3087 3059 3059 3059 3059 3059 3059 0 0 0 3087 3087 3059 3059 3059 3059 3087 3087 3087 3087 3087 3115 3087 3087 3059 3059 3059 3033 3033 3033 3059 3033 3033 3033 3033 3033 3059 3059 3059 3059 3087 3087 0 3087 0 0 1047 1047 1044 1044 1044 1040 1037 1031 1028 1025 1025 1022 1022 1019 1019 1019 1019 1019 1019 1019 1019 1019 1019 1019 1019 1019 1019 1019 1022 1022 1025 1028 1028 1031 1031 1034 1037 1040 1040 1044 1047 1047 1050 1053 1056 1060 1063 1066 1069 1073 1076 1079 1083 1086 1086 1090 1093 1097 1100 1104 1104 1107 1111 1111 1114 1114 0 0 0 0 0 0 0 0 0 0 0 0 0 0 0 0 0 0 0 561 562 562 563 563 563 564 564 565 565 565 566 566 567 567 567 568 569 569 570 571 571 572 572 572 572 573 573 573 573 573 574 574 575 575 576 576 577 577 578 578 579 579 580 581 581 582 582 583 583 583 583 584 584 584 585 586 587 587 587 588 588 589 590 590 591 591 592 592 593 593 594 595 595 596 596 597 597 598 598 598 599 599 599 600 600 601 603 604 604 605 605 606 606 606 606 607 608 608 609 609 609 610 610 611 611 611 612 612 613 614 615 617 617 617 618 619 620 620 620 620 621 621 622 623 624 624 625 625 627 628 629 629 629 629 630 630 631 631 632 634 634 635 635 635 636 636 637 638 638 638 638 639 639 641 642 643 644 644 645 645 647 648 648 649 649 649 650 650 650 651 653 653 653 654 654 655 656 656 658 658 659 659 660 660 661 660 661 663 663 665 667 668 667 668 668 668 668 0 0 0 0 0 0 0 0 0 0 0 0 0 0 0 0 0 0 0 0 0 0 0 0 0 0 0 0 0 0 0 0 0 0 0 0 0 0 0 0 0 0 0 0 0 0 0 0 0 3602 3565 3565 3565 3565 3565 3565 3565 3565 3602 3565 3602 3602 3602 3602 3640 3640 3602 3602 3602 3602 3602 3565 3565 3602 3602 3602 3602 3565 3602 3565 3565 3565 3565 3528 3528 3528 3528 3493 3493 3493 3493 3493 3458 3423 3423 3423 3423 3390 3390 3357 3357 3357 3357 3324 3324 3293 3293 3293 3293 3262 3262 3262 3231 3231 3231 3201 3201 3201 3201 3172 3172 3143 3115 3115 3115 3115 3087
    0 0 0 0 0 0 0 0 0 0 0 0 0 0 0 0 0 0 0 0 0 0 0 0 0 0 0 0 0 0 0 0 0 0 0 0 0 0 0 0 0 0 0 0 0 0 0 0 0 0 0 0 0 0 0 0 0 0 0 0 0 0 0 0 0 0 0 0 0 1964 1964 1964 1975 1975 1975 1975 1986 1986 1986 1986 1986 1998 1998 1998 1998 1998 1998 1998 2009 2009 2009 2009 2009 0 2451 2451 2451 2451 2400 2434 2400 2400 2400 2400 2400 2400 2400 2400 0 3293 3293 3324 3324 3324 3324 3324 3324 3324 3324 3324 3324 3324 3324 3324 3324 3324 3324 3324 3324 3324 3324 3324 3324 3293 3293 3293 3293 3324 3293 3293 3293 3293 3293 3293 3293 3293 3293 3293 3293 3293 3293 3293 3293 3293 3293 3293 3293 3293 3293 3293 3293 3293 3293 3293 3293 3262 3262 3262 3262 3262 3231 3231 3262 3262 0 0 0 0 0 0 0 3087 3087 3087 3087 3087 3059 3059 3087 3059 3059 0 0 0 0 0 3087 3087 3087 3087 3115 3115 3143 3115 3143 3143 3143 3143 3115 3115 3115 3087 3059 3059 3059 3033 3033 3033 3033 3033 3059 3059 3059 3087 3087 3087 3087 3087 0 0 1044 0 1044 1040 1040 1040 1037 1034 1031 1025 1025 1022 1022 1019 1019 1019 1019 1019 1019 1019 1019 1019 1019 1019 1019 1019 1019 1019 1022 1022 1025 1028 1031 1031 1034 1037 1037 1040 1040 1044 1047 1047 1050 1056 1056 1060 1066 1069 1073 1076 1079 1083 1083 1086 1086 1090 1093 1097 1100 1100 1104 1107 1107 1111 1111 1114 0 0 0 0 0 0 0 0 0 0 0 0 0 0 0 0 0 0 561 561 561 562 562 562 562 564 564 564 565 565 566 566 567 567 567 568 569 569 570 570 571 571 571 572 572 573 573 573 573 573 574 574 575 575 576 576 576 577 578 578 579 579 580 580 581 582 582 583 583 583 583 584 584 584 585 585 586 587 587 588 588 589 589 590 590 591 592 592 593 593 594 594 595 595 596 596 597 597 598 598 599 599 599 599 600 601 603 603 604 604 604 605 605 606 606 606 607 608 608 608 609 610 610 610 611 611 612 612 612 613 615 615 617 617 618 619 619 619 620 620 621 621 621 622 623 624 624 625 625 627 628 628 628 629 629 630 630 631 631 632 634 635 635 635 635 636 637 637 638 637 638 638 639 639 641 642 643 643 644 645 645 647 648 649 648 649 649 650 650 650 651 651 653 653 654 655 656 656 658 658 659 659 659 660 660 660 661 663 663 665 667 667 667 667 668 668 668 0 0 0 0 0 0 0 0 0 0 0 0 0 0 0 0 0 0 0 0 0 0 0 0 0 0 0 0 0 0 0 0 0 0 0 0 0 0 0 0 0 0 0 0 0 0 0 0 0 0 3528 3565 3565 3565 3565 3565 3565 3602 3602 3602 3602 3602 3602 3602 3640 3602 3602 3602 3602 3640 3602 3602 3602 3640 3640 3640 3640 3602 3640 3602 3565 3565 3565 3565 3528 3528 3528 3493 3493 3493 3493 3493 3458 3423 3458 3423 3423 3390 3390 3357 3357 3357 3357 3324 3324 3293 3293 3293 3293 3262 3262 3231 3231 3231 3231 3201 3201 3201 3201 3172 3143 3143 3143 3143 3115 3115 3087
    0 0 0 0 0 0 0 0 0 0 0 0 0 0 0 0 0 0 0 0 0 0 0 0 0 0 0 0 0 0 0 0 0 0 0 0 0 0 0 0 0 0 0 0 0 0 0 0 0 0 0 0 0 0 0 0 0 0 0 0 0 0 0 0 0 0 0 0 0 0 1952 1964 1964 1964 1975 1975 1975 1986 1986 1986 1998 1998 1998 1998 1998 1998 1998 1998 1998 1998 1998 2009 2009 0 2469 2469 2451 2451 2417 2434 2400 2400 2400 2400 2400 2417 2417 2434 0 3293 3293 3324 3324 3324 3324 3324 3324 3324 3324 3324 3324 3324 3324 3324 3324 3324 3324 3324 3324 3324 3324 3324 3324 3324 3293 3293 3293 3324 3293 3293 3293 3293 3293 3293 3293 3293 3293 3293 3293 3293 3293 3293 3293 3293 3293 3293 3293 3293 3262 3293 3293 3293 3293 3293 3293 3293 3293 3293 3293 3293 3262 3262 3262 3262 3172 3172 3172 0 0 0 0 0 0 3115 3115 3115 3087 3059 3087 3087 3087 0 0 0 0 0 3059 3059 3087 3087 3087 3115 3143 3143 3143 3172 3143 3143 3143 3143 3115 3115 3087 3059 3059 3033 3033 3006 3033 3033 3087 3087 3087 3115 3115 3115 3087 3087 3087 3087 0 0 1044 1040 1040 1037 1037 1034 1031 1028 1028 1025 1022 1022 1022 1019 1019 1019 1019 1019 1019 1019 1019 1019 1019 1019 1019 1019 1022 1025 1028 1031 1031 1034 1034 1037 1037 1040 1044 1044 1047 1050 1053 1056 1060 1066 1069 1073 1076 1079 1079 1083 1083 1086 1086 1090 1093 1097 1100 1100 1104 1104 1107 1111 1111 1111 0 0 0 0 0 0 0 0 0 0 0 0 0 0 0 0 0 0 561 561 561 561 562 562 562 563 563 564 565 565 565 566 567 567 567 568 568 569 569 570 571 571 571 572 572 573 573 573 573 573 574 574 575 575 575 576 576 577 577 578 578 579 579 580 580 581 582 582 583 583 583 583 584 584 585 585 586 587 587 587 588 588 589 589 590 591 591 592 592 593 594 594 594 595 595 596 596 597 597 598 599 599 599 599 600 600 601 603 603 604 604 604 605 605 605 605 606 607 608 608 608 609 610 610 610 611 611 612 612 613 614 615 615 617 617 618 618 619 619 619 620 620 621 621 622 623 624 624 625 627 627 627 627 628 629 630 630 630 631 632 634 634 634 634 635 635 636 637 638 637 637 638 638 639 641 641 643 643 644 644 644 645 647 648 648 649 649 649 649 649 650 651 651 653 654 654 655 656 656 658 658 659 659 660 660 659 660 661 663 665 665 667 667 667 667 667 0 0 0 0 0 0 0 0 0 0 0 0 0 0 0 0 0 0 0 0 0 0 0 0 0 0 0 0 0 0 0 0 0 0 0 0 0 0 0 0 0 0 0 0 0 0 0 0 0 0 0 3528 3565 3565 3565 3565 3565 3602 3602 3602 3602 3602 3602 3602 3640 3640 3602 3602 3602 3602 3640 3640 3602 3640 3640 3640 3640 3640 3640 3640 3640 3602 3602 3602 3602 3565 3565 3528 3493 3493 3493 3493 3458 3458 3423 3458 3423 3390 3390 3390 3390 3357 3357 3357 3324 3324 3324 3293 3293 3293 3262 3262 3231 3231 3231 3231 3231 3201 3201 3201 3201 3172 3172 3143 3143 3143 3115 3087
    0 0 0 0 0 0 0 0 0 0 0 0 0 0 0 0 0 0 0 0 0 0 0 0 0 0 0 0 0 0 0 0 0 0 0 0 0 0 0 0 0 0 0 0 0 0 0 0 0 0 0 0 0 0 0 0 0 0 0 0 0 0 0 0 0 0 0 0 0 0 1952 1964 1964 1964 1964 1975 1975 1986 1986 1986 1998 1998 1998 1998 1998 1998 1998 1998 1998 1998 1998 1998 1998 2451 2451 2451 2434 2417 2417 2417 2400 2400 2400 2400 2400 2417 2434 2434 0 3293 3293 3293 3324 3324 3324 3324 3324 3324 3324 3324 3324 3324 3324 3324 3324 3324 3324 3324 3324 3324 3324 3324 3293 3293 3293 3293 3293 3293 3293 3293 3293 3293 3293 3293 3293 3293 3293 3293 3293 3293 3293 3293 3293 3293 3293 3293 3293 3293 3262 3262 3262 3293 3293 3293 3293 3293 3293 3293 3293 3293 3293 3293 3262 3293 3172 3172 3172 3172 3172 3172 3172 0 0 3143 3143 3115 3087 3087 3115 3115 3115 0 0 0 0 0 0 3059 3059 3087 3087 3115 3143 3143 3143 3143 3172 3172 3143 3143 3143 3143 3115 3087 3059 3033 3033 3033 3033 3115 3115 3115 3115 3115 3115 3087 3087 3087 3087 3087 0 0 0 1040 1040 1037 1037 1034 1031 1028 1028 1025 1022 1022 1022 1022 1019 1019 1019 1019 1019 1019 1019 1019 1019 1019 1022 1022 1022 1025 1028 1031 1031 1034 1037 1040 1040 1040 1044 1047 1047 1050 1056 1060 1063 1066 1069 1073 1076 1079 1083 1083 1086 1086 1086 1090 1093 1097 1100 1100 1104 1104 1104 1107 1111 1111 0 0 0 0 0 0 0 0 0 0 0 0 0 0 0 0 0 0 0 0 561 561 562 562 561 562 562 563 564 564 565 566 567 567 567 568 568 569 569 569 570 571 571 571 572 572 573 573 573 573 573 574 575 575 575 576 576 577 577 578 578 578 579 580 580 581 581 582 582 582 582 583 583 583 584 585 585 586 587 587 587 588 588 589 589 590 591 592 592 593 593 594 594 594 595 596 596 597 597 598 598 598 598 599 599 600 600 601 603 603 604 604 604 605 604 605 606 606 607 607 608 608 609 609 610 611 611 611 612 613 614 614 615 615 617 617 618 618 618 618 619 620 620 621 622 622 623 624 625 625 627 627 627 628 628 629 630 630 631 631 632 632 634 634 635 635 636 636 637 637 637 638 638 639 639 641 642 643 643 644 644 645 645 647 647 648 648 649 649 649 650 651 651 653 653 654 655 655 656 658 658 658 659 659 659 659 659 661 663 665 665 667 667 667 667 667 0 0 0 0 0 0 0 0 0 0 0 0 0 0 0 0 0 0 0 0 0 0 0 0 0 0 0 0 0 0 0 0 0 0 0 0 0 0 0 0 0 0 0 0 0 0 0 0 0 0 3528 3528 3528 3528 3565 3565 3565 3565 3602 3602 3602 3602 3602 3602 3602 3640 3640 3602 3640 3640 3679 3679 3640 3640 3679 3679 3679 3679 3679 3679 3640 3640 3602 3602 3602 3565 3565 3528 3493 3528 3493 3493 3493 3458 3458 3423 3423 3390 3390 3390 3390 3390 3357 3357 3324 3324 3324 3324 3324 3293 3293 3262 3262 3231 3231 3231 3231 3201 3201 3201 3201 3172 3172 3143 3143 3143 3087 3059
    0 0 0 0 0 0 0 0 0 0 0 0 0 0 0 0 0 0 0 0 0 0 0 0 0 0 0 0 0 0 0 0 0 0 0 0 0 0 0 0 0 0 0 0 0 0 0 0 0 0 0 0 0 0 0 0 0 0 0 0 0 0 0 0 0 0 0 0 0 1952 1952 1952 1964 1964 1964 1975 1975 1986 1986 1986 1986 1998 1998 1998 1998 1998 1998 1998 1998 1998 1998 1998 1998 2451 2451 2451 2451 2417 2417 2417 2400 2400 2400 2400 2400 2417 2451 2451 3293 3293 3293 3324 3324 3324 3324 3324 3324 3324 3324 3324 3324 3324 3324 3293 3324 3324 3324 3324 3324 3324 3293 3293 3293 3293 3293 3293 3293 3293 3262 3293 3293 3293 3293 3293 3293 3293 3293 3293 3293 3293 3293 3293 3293 3293 3293 3293 3293 3293 3262 3293 3293 3293 3293 3293 3293 3293 3293 3293 3293 3293 3293 3293 3293 3201 3201 3172 3172 3172 3201 3172 3172 3293 3293 3231 3231 3201 3115 3087 3143 3143 3115 0 0 0 0 0 0 0 3231 3231 3231 3231 3201 3231 3231 3201 3172 3172 3172 3172 3172 3172 3201 3201 3231 3262 3262 3262 3262 3087 3087 3087 3087 3087 3087 3059 3059 3059 3087 3059 0 3115 0 0 1037 1034 1034 1034 1031 1028 1028 1028 1025 1025 1022 1022 1022 1022 1019 1019 1019 1019 1019 1019 1019 1022 1022 1022 1025 1028 1031 1034 1034 1037 1040 1040 1044 1044 1047 1047 1053 1056 1060 1066 1066 1069 1073 1076 1076 1079 1083 1083 1086 1086 1090 1093 1093 1097 1100 1100 1100 1104 1104 1107 1111 1111 0 0 0 0 0 0 0 0 0 0 0 0 0 0 0 0 0 0 0 0 560 560 561 561 561 561 561 562 563 564 565 565 566 566 567 567 568 568 569 569 570 570 571 571 572 572 572 573 573 573 573 574 575 575 575 575 576 576 577 577 577 578 579 579 580 580 581 582 582 582 582 583 583 583 584 585 585 586 587 587 587 588 588 588 589 590 590 591 592 592 592 593 593 593 594 595 596 596 596 597 598 598 598 598 599 599 599 600 601 603 603 604 604 605 604 604 605 606 607 607 608 608 609 609 609 610 610 611 611 612 613 614 614 615 617 617 617 618 618 618 619 619 620 620 621 622 622 624 624 625 625 625 625 627 628 629 629 629 630 630 631 632 632 634 634 635 635 636 636 637 637 638 638 639 639 641 642 642 643 643 644 644 645 645 647 647 648 648 649 649 649 651 651 653 653 654 654 655 655 656 658 658 658 659 659 658 658 660 660 663 664 665 665 665 667 667 0 0 0 0 0 0 0 0 0 0 0 0 0 0 0 0 0 0 0 0 0 0 0 0 0 0 0 0 0 0 0 0 0 0 0 0 0 0 0 0 0 0 0 0 0 0 0 0 0 0 0 3528 3565 3565 3565 3565 3565 3602 3602 3602 3602 3602 3602 3602 3602 3602 3602 3602 3640 3640 3679 3679 3679 3679 3679 3679 3679 3679 3679 3640 3640 3602 3602 3602 3565 3565 3528 3493 3493 3493 3493 3493 3493 3458 3458 3458 3423 3390 3390 3390 3390 3357 3357 3357 3324 3324 3293 3293 3293 3293 3293 3262 3262 3262 3231 3231 3231 3201 3201 3201 3201 3172 3172 3143 3143 3143 3115 3115
    0 0 0 0 0 0 0 0 0 0 0 0 0 0 0 0 0 0 0 0 0 0 0 0 0 0 0 0 0 0 0 0 0 0 0 0 0 0 0 0 0 0 0 0 0 0 0 0 0 0 0 0 0 0 0 0 0 0 0 0 0 0 0 0 0 0 0 0 0 1952 1952 1964 1964 1964 1964 1975 1975 1986 1986 1986 1998 1998 1998 1998 1998 1998 1998 1998 1998 1998 1998 1998 1998 2469 2469 2451 2434 2434 2417 2417 2417 2400 2400 2400 2400 2417 2434 2434 3293 3293 3293 3324 3324 3324 3324 3324 3324 3324 3324 3324 3324 3293 3293 3293 3293 3293 3293 3293 3293 3293 3293 3293 3293 3293 3293 3293 3293 3293 3262 3293 3293 3293 3293 3293 3293 3293 3293 3293 3293 3293 3293 3293 3293 3293 3293 3293 3293 3293 3262 3262 3262 3293 3293 3293 3293 3293 3293 3293 3324 3324 3293 3293 3293 3143 3143 3172 3172 3172 3293 3293 3293 3293 3293 3293 3324 3293 3231 3293 3231 3201 3201 3231 0 0 0 0 0 0 0 0 3262 3262 3262 3262 3231 3201 3201 3201 3201 3201 3201 3231 3231 3231 3231 3262 3262 3262 0 0 0 3293 0 3059 3059 3059 3059 3059 3059 3059 3087 3115 0 0 0 0 1031 1028 1031 1031 1031 1028 1028 1025 1025 1025 1022 1022 1022 1022 1022 1019 1022 1022 1022 1022 1025 1025 1025 1031 1034 1034 1037 1040 1044 1044 1044 1047 1047 1050 1053 1060 1063 1066 1069 1073 1076 1076 1079 1083 1083 1083 1086 1086 1086 1090 1093 1097 1097 1100 1100 1104 1104 1107 1111 1114 1118 0 0 0 0 0 0 0 0 0 0 0 0 0 0 0 0 0 0 0 560 560 561 561 560 561 561 561 562 563 564 565 565 565 566 567 567 568 568 569 569 570 570 571 571 572 572 572 573 573 573 574 574 575 575 575 576 576 577 577 578 578 579 579 580 580 581 582 582 581 582 583 583 583 584 585 585 586 587 587 587 588 588 588 589 589 591 591 592 592 592 592 593 593 594 595 596 596 596 597 597 598 598 598 599 599 599 600 600 601 603 604 604 604 604 604 605 605 607 607 607 608 608 608 609 609 610 610 611 611 612 613 614 614 615 617 617 617 618 618 618 619 620 620 621 621 622 623 624 625 625 625 625 625 627 628 629 629 630 630 631 631 631 632 634 635 635 636 636 636 637 638 638 638 639 639 642 642 643 643 644 644 645 645 645 647 648 648 648 649 649 650 651 651 653 654 654 654 656 658 658 658 658 659 658 656 658 659 660 661 663 664 664 664 667 667 667 0 0 0 0 0 0 0 0 0 0 0 0 0 0 0 0 0 0 0 0 0 0 0 0 0 0 0 0 0 0 0 0 0 0 0 0 0 0 0 0 0 0 0 0 0 0 0 0 0 0 0 3565 3528 3565 3565 3565 3602 3602 3602 3602 3602 3602 3602 3602 3602 3602 3602 3640 3640 3679 3679 3679 3679 3679 3679 3679 3679 3640 3640 3602 3602 3565 3602 3565 3565 3528 3493 3493 3493 3493 3493 3493 3493 3458 3458 3423 3423 3390 3390 3390 3357 3357 3324 3324 3293 3293 3293 3293 3293 3293 3293 3262 3262 3262 3231 3231 3201 3201 3201 3172 3172 3143 3143 3143 3143 3115 3115</data></dframe>
</opencv_storage>
