<?xml version="1.0"?>
<opencv_storage>
<dframe type_id="opencv-matrix">
  <rows>34</rows>
  <cols>640</cols>
  <dt>w</dt>
  <data>
    0 0 0 0 0 0 0 0 0 0 0 0 0 0 0 0 0 0 0 0 0 0 0 0 0 0 0 0 0 0 0 0 0 0 0 0 0 0 0 0 0 0 0 0 0 0 0 0 0 0 0 0 0 0 0 0 0 0 0 0 0 0 0 0 0 0 0 0 0 0 0 0 0 0 0 0 0 0 0 0 0 0 0 0 0 0 0 0 0 0 0 0 0 0 0 0 0 0 0 0 0 0 0 0 0 0 0 0 0 0 0 0 0 0 0 0 0 0 0 0 0 0 0 0 0 0 0 0 0 0 0 0 0 0 2451 2451 2451 2451 2451 2451 2451 2451 2451 2434 2434 2434 2434 2434 2434 2434 2434 2434 2434 2451 2434 2434 2434 2434 2434 2434 2434 2434 2434 2434 2434 2434 2434 2434 2434 2434 2434 2434 2434 2434 2434 2434 2434 2451 2451 2451 2434 2434 2434 2434 2417 2434 2434 2434 2434 2434 2434 2434 2434 2434 2434 2434 2434 2417 2417 2434 2434 2434 2434 2434 2417 2417 2434 2417 2417 2417 2417 2417 2417 2434 2417 2417 2417 2417 2434 2417 2434 2434 2434 2434 2434 2434 2434 2434 2434 2434 2434 2417 2400 2400 2417 2417 2400 2400 2417 2417 2417 2417 2417 2417 2417 2417 2417 2417 2400 2400 2400 2400 2417 2417 2417 2417 2417 2417 2417 2417 2417 2417 2434 2434 2417 2417 2417 2417 2417 2417 2417 2417 2417 2417 2417 2417 2417 2417 2400 2400 2400 2417 2417 2417 2417 2417 2417 2417 2417 2417 2417 2417 2417 2417 2417 2417 2417 2417 2434 2434 2434 2417 2417 2417 2417 2417 2417 2417 2400 2400 2400 2400 2384 2384 2400 2400 2400 2400 2400 2400 2400 2400 2400 2400 2400 2400 2400 2400 2400 2400 2400 2400 2417 2417 2400 2400 2400 2400 2400 2400 2400 2400 2400 2400 2400 2400 2400 2400 2400 2400 2400 2400 2400 2400 2384 2384 2384 2384 2384 2384 2384 2384 2384 2384 2384 2384 2384 2400 2384 2384 2400 2400 2400 2400 2400 2417 2417 2417 2417 2400 2400 2400 2400 2400 2400 2400 2400 2400 2400 2400 2400 2417 2417 2400 2400 2400 2400 2400 2400 2400 2400 2400 2400 2400 2400 2400 2417 2400 2384 2384 2400 2384 2384 2400 2384 2384 2384 2384 2384 2384 2400 2400 2400 2400 2417 2400 2400 2384 2400 2400 2400 2400 2400 2400 2400 2400 2400 2400 2400 2400 2400 2400 2400 2417 2400 2417 2400 2400 2400 2400 2400 2400 2400 2417 2417 2417 2417 2400 2400 2400 2400 2400 2400 2400 2400 2417 2417 2417 2417 2417 2417 2400 2417 2400 2417 2417 2417 2417 2434 2417 2417 2417 2400 2417 2417 2417 2417 2417 2417 2417 2417 2417 2417 2417 2417 2417 2400 2400 2400 2384 2400 2400 2400 2400 2417 2400 2400 2400 2400 2400 2400 2400 2400 2400 2400 2400 2417 2417 2417 2417 2400 2400 2400 2400 2400 2400 2400 2417 2417 2417 2417 2417 2417 2417 2417 2417 2417 2417 2417 2417 2417 2400 2400 2400 2417 2417 2400 2417 2400 2417 2417 2417 2400 2400 2400 2400 2400 2400 2400 2417 2417 2417 2434 2434 2434 2434 2434 2434 2417 2434 2417 2417 2417 2417 2417 2417 2417 2417 2434 2417 2434 2417 2434 2417 2400 2400 2400 2400 2400 2417 2400 2400 2417 2417 2417 2417 2400 2400 2400 2417 2417 2417 2417 2384 2384 2384 2384 2384 2384 2367 2367 2367 2367 2367 2351 2351 2351 2351 2351 2351 2335 2351 2351 2351 2351 2351 2351 2335 2335 2304 2304 2289 2289 2274 2259 2259 2274 2259 2259 2259
    0 0 0 0 0 0 0 0 0 0 0 0 0 0 0 0 0 0 0 0 0 0 0 0 0 0 0 0 0 0 0 0 0 0 0 0 0 0 0 0 0 0 0 0 0 0 0 0 0 0 0 0 0 0 0 0 0 0 0 0 0 0 0 0 0 0 0 0 0 0 0 0 0 0 0 0 0 0 0 0 0 0 0 0 0 0 0 0 0 0 0 0 0 0 0 0 0 0 0 0 0 0 0 0 0 0 0 0 0 0 0 0 0 0 0 0 0 0 0 0 0 0 0 0 0 0 0 0 0 0 0 0 0 2451 2451 2451 2451 2469 2451 2469 2451 2451 2451 2434 2434 2434 2434 2434 2434 2434 2434 2434 2451 2451 2451 2451 2451 2434 2434 2434 2434 2434 2434 2434 2434 2434 2434 2434 2434 2434 2434 2434 2434 2434 2434 2434 2434 2451 2451 2451 2451 2451 2451 2451 2434 2434 2434 2434 2434 2434 2434 2434 2434 2434 2434 2434 2434 2434 2434 2434 2434 2434 2434 2434 2434 2434 2434 2434 2434 2417 2417 2434 2434 2434 2434 2434 2434 2434 2434 2434 2434 2434 2434 2434 2434 2434 2434 2434 2434 2434 2434 2417 2400 2400 2400 2400 2417 2400 2417 2417 2417 2417 2417 2417 2417 2417 2417 2417 2417 2400 2417 2417 2417 2417 2417 2417 2417 2417 2417 2434 2434 2434 2434 2434 2434 2434 2434 2417 2417 2417 2417 2417 2417 2417 2417 2417 2417 2417 2417 2417 2417 2417 2417 2417 2417 2434 2417 2434 2417 2417 2417 2417 2417 2417 2417 2417 2434 2434 2434 2434 2434 2434 2417 2417 2417 2434 2417 2417 2417 2417 2417 2417 2400 2400 2417 2417 2417 2417 2417 2400 2400 2400 2400 2400 2400 2400 2400 2400 2400 2400 2400 2400 2400 2417 2400 2400 2400 2400 2400 2400 2417 2400 2400 2400 2400 2400 2400 2400 2400 2400 2400 2400 2400 2400 2400 2384 2400 2400 2384 2400 2384 2384 2384 2384 2384 2384 2400 2400 2400 2400 2400 2417 2400 2400 2417 2417 2417 2417 2417 2417 2417 2400 2400 2400 2400 2400 2400 2400 2400 2400 2417 2417 2417 2417 2417 2417 2417 2417 2400 2400 2400 2417 2400 2400 2400 2400 2417 2417 2384 2384 2400 2400 2384 2400 2384 2384 2384 2400 2400 2384 2400 2400 2400 2400 2417 2400 2400 2417 2400 2417 2400 2417 2400 2400 2400 2400 2400 2400 2400 2400 2417 2400 2400 2417 2417 2417 2417 2400 2400 2400 2417 2400 2417 2417 2417 2417 2417 2400 2400 2400 2400 2400 2400 2400 2400 2417 2417 2417 2400 2417 2417 2417 2417 2417 2417 2417 2417 2434 2434 2434 2434 2417 2417 2417 2417 2417 2417 2417 2417 2417 2417 2417 2417 2417 2417 2417 2400 2400 2400 2384 2400 2400 2400 2367 2417 2400 2417 2417 2417 2417 2417 2400 2400 2417 2417 2417 2417 2417 2434 2434 2417 2400 2400 2417 2417 2417 2417 2417 2417 2417 2417 2417 2417 2417 2417 2417 2400 2417 2417 2417 2417 2400 2417 2417 2417 2417 2417 2417 2417 2417 2417 2417 2417 2400 2400 2400 2400 2400 2417 2417 2434 2434 2434 2434 2434 2434 2434 2434 2417 2434 2417 2417 2417 2417 2417 2417 2417 2434 2434 2434 2434 2417 2434 2434 2400 2400 2400 2400 2417 2417 2400 2417 2417 2417 2417 2417 2417 2417 2417 2417 2417 2417 2417 2417 2417 2417 2400 2400 2384 2367 2367 2367 2367 2367 2367 2367 2367 2351 2351 2351 2351 2367 2351 2351 2351 2351 2351 2351 2351 2335 2335 2304 2289 2304 2289 2274 2289 2274 2274 2259
    0 0 0 0 0 0 0 0 0 0 0 0 0 0 0 0 0 0 0 0 0 0 0 0 0 0 0 0 0 0 0 0 0 0 0 0 0 0 0 0 0 0 0 0 0 0 0 0 0 0 0 0 0 0 0 0 0 0 0 0 0 0 0 0 0 0 0 0 0 0 0 0 0 0 0 0 0 0 0 0 0 0 0 0 0 0 0 0 0 0 0 0 0 0 0 0 0 0 0 0 0 0 0 0 0 0 0 0 0 0 0 0 0 0 0 0 0 0 0 0 0 0 0 0 0 0 0 0 0 0 0 0 0 2434 2451 2451 2451 2469 2451 2469 2469 2451 2469 2451 2451 2434 2434 2434 2434 2434 2451 2451 2451 2451 2451 2451 2451 2451 2434 2434 2434 2434 2451 2451 2451 2451 2451 2451 2451 2434 2434 2434 2434 2451 2451 2434 2451 2451 2451 2451 2451 2451 2417 2417 2417 2434 2434 2434 2434 2434 2434 2451 2434 2434 2434 2434 2434 2434 2434 2434 2434 2434 2451 2451 2451 2451 2434 2434 2434 2434 2434 2434 2434 2434 2434 2434 2434 2434 2434 2434 2434 2434 2434 2434 2434 2434 2434 2434 2434 2434 2434 2417 2417 2417 2400 2400 2417 2417 2417 2417 2417 2417 2417 2417 2417 2417 2417 2417 2417 2417 2417 2417 2417 2417 2417 2417 2417 2434 2434 2434 2434 2434 2434 2434 2434 2434 2434 2417 2417 2417 2417 2417 2417 2417 2417 2417 2417 2417 2417 2417 2417 2417 2417 2417 2434 2434 2434 2434 2417 2417 2417 2417 2417 2417 2417 2434 2434 2434 2434 2434 2434 2434 2434 2417 2417 2434 2417 2417 2417 2417 2417 2417 2417 2417 2417 2417 2417 2417 2417 2400 2417 2400 2417 2400 2417 2417 2417 2400 2400 2400 2400 2417 2400 2417 2400 2417 2417 2417 2417 2400 2417 2400 2400 2400 2400 2400 2400 2400 2400 2400 2417 2400 2400 2400 2400 2400 2400 2400 2400 2400 2400 2400 2384 2400 2400 2400 2400 2400 2400 2400 2417 2417 2417 2417 2417 2417 2417 2417 2417 2417 2417 2417 2417 2400 2417 2417 2417 2417 2417 2417 2417 2417 2417 2400 2417 2417 2417 2417 2417 2417 2417 2417 2417 2417 2417 2417 2417 2417 2400 2400 2400 2417 2400 2400 2400 2400 2384 2384 2400 2384 2400 2400 2400 2417 2417 2417 2417 2417 2417 2417 2417 2400 2400 2417 2400 2400 2400 2400 2400 2400 2417 2417 2417 2417 2417 2434 2434 2417 2417 2434 2434 2417 2417 2417 2417 2417 2417 2400 2400 2400 2400 2417 2400 2417 2417 2417 2417 2417 2417 2417 2417 2417 2417 2417 2434 2434 2434 2434 2434 2434 2434 2417 2417 2417 2417 2417 2434 2417 2417 2434 2434 2417 2417 2434 2417 2434 2400 2417 2417 2384 2417 2384 2384 2384 2434 2417 2434 2417 2434 2417 2417 2417 2417 2417 2417 2417 2417 2417 2434 2434 2417 2400 2417 2417 2417 2417 2417 2417 2434 2434 2434 2434 2434 2434 2417 2434 2417 2434 2434 2434 2434 2400 2417 2417 2417 2417 2417 2417 2417 2434 2434 2434 2434 2417 2417 2417 2417 2417 2417 2417 2434 2434 2434 2434 2434 2434 2434 2434 2434 2434 2434 2417 2417 2434 2417 2434 2434 2434 2434 2434 2434 2434 2434 2434 2417 2417 2417 2417 2417 2417 2417 2417 2417 2417 2417 2417 2417 2417 2417 2417 2417 2417 2417 2400 2417 2417 2400 2400 2400 2400 2384 2384 2384 2384 2384 2384 2384 2367 2367 2367 2367 2367 2351 2367 2351 2367 2351 2351 2351 2351 2304 2304 2289 2289 2289 2289 2289 2289 2274 2259
    0 0 0 0 0 0 0 0 0 0 0 0 0 0 0 0 0 0 0 0 0 0 0 0 0 0 0 0 0 0 0 0 0 0 0 0 0 0 0 0 0 0 0 0 0 0 0 0 0 0 0 0 0 0 0 0 0 0 0 0 0 0 0 0 0 0 0 0 0 0 0 0 0 0 0 0 0 0 0 0 0 0 0 0 0 0 0 0 0 0 0 0 0 0 0 0 0 0 0 0 0 0 0 0 0 0 0 0 0 0 0 0 0 0 0 0 0 0 0 0 0 0 0 0 0 0 0 0 0 0 0 0 0 2451 2451 2469 2451 2469 2451 2469 2469 2469 2469 2451 2451 2451 2434 2434 2434 2451 2451 2451 2451 2451 2451 2451 2451 2451 2451 2434 2451 2451 2451 2451 2451 2451 2451 2451 2451 2451 2451 2434 2451 2451 2451 2451 2451 2451 2451 2451 2451 2451 2451 2434 2434 2451 2451 2434 2434 2434 2434 2451 2434 2434 2434 2434 2434 2434 2434 2434 2451 2434 2434 2451 2451 2451 2434 2434 2451 2451 2451 2434 2434 2434 2434 2434 2434 2434 2434 2434 2434 2434 2434 2434 2434 2434 2434 2434 2434 2434 2434 2417 2417 2417 2400 2400 2417 2417 2417 2417 2417 2417 2417 2417 2417 2417 2417 2417 2417 2417 2417 2417 2417 2417 2417 2417 2434 2434 2434 2434 2434 2434 2434 2434 2434 2434 2434 2417 2417 2417 2417 2417 2417 2417 2417 2417 2417 2417 2434 2417 2417 2434 2434 2434 2434 2434 2434 2434 2434 2434 2434 2434 2434 2434 2434 2434 2434 2434 2451 2451 2434 2434 2434 2434 2434 2434 2434 2434 2434 2417 2434 2417 2417 2417 2417 2417 2417 2417 2434 2417 2417 2417 2417 2417 2417 2417 2417 2400 2400 2400 2400 2417 2400 2417 2400 2417 2417 2417 2417 2417 2417 2400 2384 2400 2400 2400 2400 2400 2400 2417 2417 2417 2417 2417 2417 2400 2417 2417 2417 2417 2417 2400 2400 2400 2400 2400 2400 2400 2400 2400 2417 2417 2417 2417 2417 2417 2417 2417 2417 2417 2417 2417 2417 2417 2417 2417 2417 2417 2417 2417 2417 2417 2417 2400 2417 2417 2417 2417 2417 2417 2417 2417 2417 2417 2417 2417 2417 2417 2400 2400 2417 2417 2400 2417 2400 2400 2400 2400 2400 2400 2400 2400 2417 2417 2434 2434 2434 2434 2434 2434 2417 2434 2417 2417 2417 2417 2417 2400 2417 2417 2417 2417 2417 2434 2434 2434 2434 2434 2434 2451 2434 2417 2417 2417 2417 2417 2417 2417 2400 2417 2417 2417 2417 2417 2417 2417 2417 2417 2417 2417 2434 2434 2434 2434 2434 2434 2434 2434 2434 2434 2434 2417 2417 2417 2417 2434 2434 2417 2434 2434 2434 2417 2417 2434 2417 2434 2400 2417 2417 2384 2417 2400 2417 2417 2417 2417 2434 2417 2434 2417 2417 2417 2417 2434 2434 2417 2434 2434 2434 2434 2434 2417 2417 2434 2417 2417 2417 2417 2434 2434 2434 2434 2434 2434 2434 2434 2434 2434 2434 2434 2434 2417 2417 2417 2417 2417 2417 2434 2434 2434 2434 2434 2434 2434 2434 2417 2417 2434 2434 2434 2434 2434 2434 2434 2434 2434 2434 2434 2434 2434 2434 2417 2417 2434 2434 2434 2434 2434 2434 2434 2434 2434 2434 2434 2417 2417 2417 2417 2417 2417 2417 2417 2417 2417 2434 2434 2417 2417 2417 2417 2417 2417 2417 2417 2417 2417 2400 2400 2400 2400 2400 2400 2384 2384 2400 2400 2384 2384 2367 2367 2367 2367 2367 2367 2367 2367 2367 2367 2351 2351 2304 2304 2320 2304 2304 2289 2304 2289 2289 2259
    0 0 0 0 0 0 0 0 0 0 0 0 0 0 0 0 0 0 0 0 0 0 0 0 0 0 0 0 0 0 0 0 0 0 0 0 0 0 0 0 0 0 0 0 0 0 0 0 0 0 0 0 0 0 0 0 0 0 0 0 0 0 0 0 0 0 0 0 0 0 0 0 0 0 0 0 0 0 0 0 0 0 0 0 0 0 0 0 0 0 0 0 0 0 0 0 0 0 0 0 0 0 0 0 0 0 0 0 0 0 0 0 0 0 0 0 0 0 0 0 0 0 0 0 0 0 0 0 0 0 0 0 0 2451 2451 2451 2469 2469 2469 2469 2469 2469 2469 2451 2451 2451 2451 2451 2451 2451 2451 2469 2451 2451 2469 2451 2451 2451 2451 2451 2451 2451 2451 2451 2451 2451 2451 2451 2451 2434 2434 2434 2434 2451 2451 2451 2451 2451 2451 2451 2451 2451 2451 2434 2434 2434 2451 2451 2434 2434 2434 2451 2434 2434 2434 2434 2451 2434 2451 2434 2451 2451 2434 2451 2451 2451 2434 2451 2451 2451 2451 2451 2451 2451 2451 2451 2434 2434 2434 2434 2434 2434 2434 2434 2451 2451 2434 2434 2434 2434 2434 2417 2417 2417 2400 2417 2417 2417 2417 2417 2417 2417 2417 2434 2417 2417 2434 2434 2434 2417 2417 2417 2417 2417 2417 2417 2434 2434 2434 2434 2434 2434 2434 2434 2434 2434 2434 2434 2434 2434 2434 2434 2434 2434 2434 2434 2434 2434 2434 2417 2417 2434 2434 2434 2434 2434 2434 2434 2434 2434 2434 2434 2434 2434 2434 2434 2434 2434 2451 2451 2434 2434 2434 2434 2434 2434 2434 2434 2434 2417 2434 2434 2434 2434 2434 2434 2434 2434 2434 2417 2417 2417 2417 2417 2417 2417 2417 2417 2417 2417 2417 2417 2400 2417 2400 2417 2417 2417 2417 2417 2417 2400 2400 2400 2417 2400 2400 2417 2400 2417 2417 2417 2417 2417 2417 2417 2417 2417 2417 2417 2417 2417 2400 2417 2417 2417 2417 2417 2400 2417 2417 2417 2417 2417 2417 2417 2417 2417 2417 2417 2417 2417 2417 2417 2417 2417 2417 2417 2417 2417 2417 2417 2417 2400 2417 2417 2417 2417 2417 2417 2417 2417 2417 2417 2417 2417 2417 2417 2417 2417 2417 2417 2417 2417 2417 2417 2400 2400 2400 2400 2417 2417 2417 2434 2434 2434 2434 2434 2434 2434 2434 2434 2417 2434 2434 2434 2434 2417 2417 2417 2434 2417 2434 2434 2434 2451 2451 2451 2434 2451 2434 2434 2434 2417 2417 2434 2434 2417 2417 2417 2417 2417 2417 2417 2417 2434 2434 2417 2434 2434 2434 2434 2434 2434 2434 2451 2434 2434 2434 2434 2434 2434 2434 2434 2434 2434 2434 2434 2434 2434 2434 2417 2434 2434 2434 2434 2417 2417 2417 2417 2417 2417 2417 2434 2434 2434 2434 2434 2434 2434 2434 2417 2417 2434 2434 2434 2434 2434 2434 2434 2434 2434 2434 2434 2434 2434 2417 2417 2434 2434 2434 2434 2434 2434 2434 2434 2434 2434 2434 2434 2434 2417 2417 2417 2417 2417 2417 2434 2434 2434 2434 2434 2451 2434 2434 2434 2434 2434 2434 2434 2434 2434 2434 2434 2451 2434 2434 2434 2434 2434 2434 2434 2434 2434 2434 2434 2434 2434 2434 2434 2434 2434 2451 2434 2417 2417 2417 2417 2417 2434 2417 2434 2434 2434 2434 2434 2434 2434 2417 2434 2417 2417 2417 2417 2417 2417 2400 2417 2417 2417 2417 2417 2400 2400 2400 2400 2400 2400 2400 2384 2384 2367 2367 2367 2367 2367 2367 2367 2367 2351 2351 2351 2320 2320 2304 2304 2304 2304 2304 2274
    0 0 0 0 0 0 0 0 0 0 0 0 0 0 0 0 0 0 0 0 0 0 0 0 0 0 0 0 0 0 0 0 0 0 0 0 0 0 0 0 0 0 0 0 0 0 0 0 0 0 0 0 0 0 0 0 0 0 0 0 0 0 0 0 0 0 0 0 0 0 0 0 0 0 0 0 0 0 0 0 0 0 0 0 0 0 0 0 0 0 0 0 0 0 0 0 0 0 0 0 0 0 0 0 0 0 0 0 0 0 0 0 0 0 0 0 0 0 0 0 0 0 0 0 0 0 0 0 0 0 0 0 0 2451 2451 2451 2469 2469 2469 2469 2469 2469 2469 2451 2451 2451 2451 2451 2451 2451 2451 2469 2451 2469 2451 2451 2451 2451 2451 2451 2451 2451 2451 2451 2451 2451 2451 2451 2451 2451 2434 2434 2434 2451 2451 2451 2451 2451 2451 2451 2451 2451 2451 2451 2451 2451 2451 2451 2434 2434 2451 2451 2451 2451 2451 2451 2451 2451 2451 2434 2451 2451 2451 2451 2451 2451 2434 2451 2451 2451 2451 2451 2451 2451 2451 2451 2451 2451 2451 2451 2451 2434 2434 2434 2434 2451 2434 2451 2434 2434 2434 2417 2417 2417 2417 2417 2417 2417 2417 2417 2417 2417 2417 2417 2417 2417 2417 2417 2417 2417 2417 2434 2434 2434 2434 2434 2434 2434 2434 2434 2434 2451 2434 2434 2434 2434 2434 2434 2434 2434 2434 2434 2434 2434 2434 2434 2434 2434 2434 2434 2434 2434 2434 2434 2434 2434 2434 2434 2434 2434 2434 2434 2434 2434 2434 2451 2451 2451 2451 2451 2451 2434 2434 2434 2434 2434 2434 2434 2434 2434 2434 2434 2434 2434 2434 2434 2434 2434 2434 2417 2434 2434 2434 2417 2434 2417 2417 2417 2417 2417 2417 2417 2417 2417 2417 2417 2417 2417 2417 2417 2417 2400 2400 2400 2400 2400 2400 2400 2417 2400 2417 2417 2417 2417 2417 2434 2434 2434 2417 2417 2417 2417 2417 2417 2417 2417 2417 2417 2417 2417 2417 2417 2417 2417 2417 2417 2417 2417 2417 2417 2417 2434 2434 2417 2434 2434 2434 2417 2417 2417 2417 2417 2417 2417 2417 2417 2417 2417 2417 2417 2417 2434 2417 2434 2434 2434 2417 2434 2417 2417 2434 2417 2417 2434 2417 2417 2417 2417 2417 2417 2417 2417 2434 2434 2451 2451 2451 2451 2434 2451 2434 2434 2434 2434 2434 2434 2434 2417 2434 2434 2434 2417 2434 2434 2434 2451 2434 2451 2434 2434 2434 2434 2434 2417 2434 2434 2434 2417 2417 2417 2417 2434 2417 2434 2434 2434 2434 2434 2434 2434 2451 2434 2451 2451 2451 2451 2451 2451 2434 2434 2434 2434 2434 2434 2434 2434 2434 2434 2434 2434 2417 2434 2434 2434 2434 2434 2417 2417 2417 2434 2417 2417 2434 2434 2434 2434 2434 2434 2434 2434 2434 2417 2417 2434 2434 2434 2434 2434 2434 2434 2434 2434 2434 2434 2434 2434 2434 2434 2434 2434 2434 2434 2434 2434 2434 2434 2434 2434 2434 2434 2417 2417 2417 2417 2434 2434 2434 2434 2434 2434 2434 2434 2451 2451 2451 2434 2451 2451 2434 2434 2434 2434 2434 2434 2434 2434 2451 2434 2451 2451 2451 2451 2451 2451 2451 2451 2434 2434 2434 2434 2451 2434 2451 2451 2434 2434 2434 2417 2417 2434 2434 2434 2434 2434 2434 2434 2434 2434 2417 2434 2417 2434 2417 2417 2417 2417 2417 2417 2417 2417 2434 2417 2417 2417 2417 2417 2400 2400 2400 2384 2384 2367 2367 2367 2367 2367 2367 2367 2367 2367 2367 2351 2335 2335 2320 2304 2304 2304 2304 2274
    0 0 0 0 0 0 0 0 0 0 0 0 0 0 0 0 0 0 0 0 0 0 0 0 0 0 0 0 0 0 0 0 0 0 0 0 0 0 0 0 0 0 0 0 0 0 0 0 0 0 0 0 0 0 0 0 0 0 0 0 0 0 0 0 0 0 0 0 0 0 0 0 0 0 0 0 0 0 0 0 0 0 0 0 0 0 0 0 0 0 0 0 0 0 0 0 0 0 0 0 0 0 0 0 0 0 0 0 0 0 0 0 0 0 0 0 0 0 0 0 0 0 0 0 0 0 0 0 0 0 0 0 0 2451 2469 2469 2469 2469 2469 2469 2469 2469 2469 2451 2451 2451 2451 2451 2451 2451 2469 2469 2469 2469 2451 2451 2451 2451 2469 2451 2451 2451 2451 2451 2451 2451 2451 2451 2451 2451 2434 2451 2451 2451 2451 2451 2451 2469 2451 2451 2469 2451 2451 2451 2451 2451 2451 2451 2434 2451 2451 2451 2451 2451 2451 2451 2451 2451 2469 2451 2451 2451 2451 2451 2451 2451 2451 2451 2451 2451 2469 2451 2451 2451 2451 2451 2451 2451 2451 2451 2451 2451 2451 2451 2451 2451 2434 2451 2434 2434 2434 2417 2417 2417 2417 2417 2417 2417 2417 2417 2417 2417 2434 2434 2434 2434 2434 2434 2434 2434 2434 2434 2434 2434 2434 2434 2434 2434 2434 2434 2434 2451 2451 2451 2434 2434 2434 2434 2434 2434 2434 2434 2434 2434 2434 2434 2434 2434 2434 2434 2434 2434 2434 2434 2434 2434 2434 2434 2434 2434 2434 2434 2434 2451 2451 2451 2451 2451 2451 2451 2451 2451 2434 2434 2434 2434 2434 2434 2434 2434 2434 2434 2434 2434 2434 2434 2451 2451 2451 2434 2434 2434 2434 2434 2434 2417 2417 2417 2417 2417 2417 2417 2417 2417 2417 2417 2417 2417 2417 2417 2417 2400 2384 2400 2400 2400 2384 2400 2400 2400 2417 2417 2417 2417 2434 2434 2434 2434 2434 2434 2434 2417 2417 2417 2417 2417 2417 2417 2417 2417 2417 2417 2417 2417 2417 2417 2417 2417 2417 2417 2434 2434 2434 2434 2434 2434 2434 2434 2417 2417 2417 2417 2417 2417 2417 2417 2417 2417 2434 2434 2434 2434 2434 2434 2434 2451 2434 2434 2417 2417 2434 2434 2434 2434 2434 2434 2434 2434 2434 2434 2434 2434 2434 2451 2451 2451 2451 2451 2451 2451 2451 2451 2434 2434 2434 2434 2434 2434 2434 2434 2434 2434 2434 2434 2451 2451 2434 2451 2451 2451 2451 2434 2434 2434 2434 2434 2434 2434 2417 2434 2417 2434 2434 2434 2434 2434 2434 2434 2434 2434 2451 2434 2434 2451 2451 2451 2451 2451 2434 2434 2434 2434 2434 2434 2434 2434 2434 2434 2434 2434 2434 2434 2434 2451 2434 2434 2417 2417 2417 2434 2417 2434 2434 2434 2434 2434 2451 2451 2451 2434 2434 2417 2434 2434 2434 2434 2434 2451 2451 2451 2451 2434 2434 2434 2434 2434 2434 2434 2434 2451 2451 2451 2451 2451 2434 2434 2434 2434 2434 2434 2417 2417 2417 2417 2434 2434 2434 2434 2434 2434 2451 2451 2451 2451 2451 2451 2451 2451 2451 2451 2451 2434 2434 2451 2451 2434 2451 2451 2451 2451 2451 2451 2451 2451 2451 2451 2451 2451 2434 2451 2451 2434 2451 2451 2434 2434 2434 2434 2434 2434 2434 2434 2434 2434 2434 2434 2434 2434 2417 2434 2417 2434 2417 2417 2417 2417 2417 2417 2434 2434 2434 2434 2417 2417 2417 2417 2417 2400 2400 2400 2384 2384 2367 2367 2384 2384 2367 2384 2367 2367 2367 2351 2351 2351 2335 2320 2320 2320 2304 2289
    0 0 0 0 0 0 0 0 0 0 0 0 0 0 0 0 0 0 0 0 0 0 0 0 0 0 0 0 0 0 0 0 0 0 0 0 0 0 0 0 0 0 0 0 0 0 0 0 0 0 0 0 0 0 0 0 0 0 0 0 0 0 0 0 0 0 0 0 0 0 0 0 0 0 0 0 0 0 0 0 0 0 0 0 0 0 0 0 0 0 0 0 0 0 0 0 0 0 0 0 0 0 0 0 0 0 0 0 0 0 0 0 0 0 0 0 0 0 0 0 0 0 0 0 0 0 0 0 0 0 0 0 0 2469 2469 2469 2469 2469 2469 2469 2469 2469 2469 2451 2451 2451 2451 2451 2469 2469 2469 2487 2469 2469 2451 2451 2451 2487 2487 2451 2451 2469 2469 2469 2451 2451 2451 2451 2451 2451 2451 2451 2451 2451 2469 2469 2469 2451 2469 2469 2469 2451 2451 2451 2451 2469 2451 2469 2451 2451 2451 2451 2451 2451 2451 2451 2469 2469 2469 2451 2451 2451 2451 2469 2469 2451 2451 2451 2451 2451 2469 2451 2451 2451 2469 2469 2469 2451 2469 2451 2451 2451 2451 2451 2434 2451 2434 2434 2434 2451 2451 2434 2434 2434 2434 2434 2434 2434 2434 2434 2434 2434 2434 2434 2434 2434 2434 2434 2434 2434 2434 2434 2434 2434 2434 2434 2434 2451 2451 2451 2434 2451 2451 2451 2434 2434 2434 2434 2434 2434 2434 2451 2451 2451 2434 2451 2451 2451 2451 2434 2434 2434 2434 2434 2434 2434 2434 2434 2434 2434 2434 2434 2434 2451 2451 2451 2451 2487 2451 2451 2451 2451 2451 2434 2451 2434 2434 2434 2434 2434 2434 2434 2434 2434 2451 2451 2451 2451 2469 2451 2451 2451 2434 2434 2434 2434 2417 2417 2417 2417 2417 2417 2417 2417 2417 2417 2417 2400 2400 2400 2400 2384 2367 2384 2384 2384 2384 2384 2384 2400 2400 2417 2417 2417 2434 2434 2434 2434 2434 2434 2434 2417 2417 2417 2417 2417 2417 2417 2417 2434 2434 2434 2434 2417 2434 2434 2434 2417 2417 2434 2434 2434 2434 2434 2434 2434 2434 2434 2434 2434 2434 2417 2417 2417 2434 2434 2434 2434 2434 2434 2434 2434 2434 2451 2451 2451 2451 2451 2434 2434 2434 2434 2434 2434 2434 2434 2434 2434 2434 2451 2451 2434 2451 2451 2451 2451 2451 2451 2451 2451 2434 2451 2434 2434 2434 2434 2434 2434 2451 2451 2451 2434 2451 2451 2451 2451 2451 2451 2451 2451 2451 2451 2469 2451 2434 2434 2451 2434 2434 2434 2434 2434 2434 2434 2434 2434 2434 2434 2451 2451 2451 2451 2451 2451 2451 2451 2451 2434 2434 2434 2451 2451 2434 2434 2434 2434 2434 2434 2434 2434 2434 2434 2434 2451 2434 2451 2417 2417 2417 2434 2434 2434 2434 2434 2434 2434 2451 2451 2451 2434 2434 2434 2434 2451 2451 2434 2451 2451 2451 2451 2451 2434 2434 2434 2434 2434 2451 2451 2451 2451 2451 2451 2451 2451 2451 2434 2434 2434 2434 2451 2434 2434 2434 2434 2434 2434 2434 2434 2434 2434 2451 2451 2451 2451 2451 2451 2451 2451 2451 2451 2451 2451 2451 2451 2451 2451 2451 2451 2451 2451 2451 2451 2451 2469 2469 2469 2451 2451 2451 2451 2451 2451 2451 2451 2434 2434 2434 2434 2434 2434 2434 2434 2434 2434 2434 2434 2434 2434 2417 2417 2417 2434 2417 2417 2417 2417 2434 2434 2434 2434 2417 2417 2417 2417 2417 2417 2417 2417 2417 2400 2400 2384 2384 2384 2384 2384 2384 2384 2384 2367 2384 2367 2367 2367 2351 2351 2320 2320 2304 2289
    0 0 0 0 0 0 0 0 0 0 0 0 0 0 0 0 0 0 0 0 0 0 0 0 0 0 0 0 0 0 0 0 0 0 0 0 0 0 0 0 0 0 0 0 0 0 0 0 0 0 0 0 0 0 0 0 0 0 0 0 0 0 0 0 0 0 0 0 0 0 0 0 0 0 0 0 0 0 0 0 0 0 0 0 0 0 0 0 0 0 0 0 0 0 0 0 0 0 0 0 0 0 0 0 0 0 0 0 0 0 0 0 0 0 0 0 0 0 0 0 0 0 0 0 0 0 0 0 0 0 0 0 0 0 2451 2469 2469 2469 2469 2469 2469 2469 2469 2451 2469 2469 2469 2469 2487 2487 2469 2487 2451 2469 2451 2451 2487 2487 2487 2469 2469 2469 2469 2469 2451 2451 2451 2451 2451 2451 2451 2451 2451 2451 2469 2469 2469 2469 2469 2469 2469 2469 2451 2469 2469 2469 2451 2469 2451 2451 2451 2469 2451 2469 2469 2469 2469 2469 2469 2451 2469 2451 2451 2469 2469 2469 2469 2451 2451 2451 2487 2451 2451 2451 2469 2451 2469 2469 2469 2469 2469 2451 2451 2451 2451 2451 2451 2451 2451 2451 2451 2434 2451 2434 2434 2434 2434 2434 2434 2434 2434 2434 2434 2434 2434 2434 2434 2434 2434 2434 2434 2434 2434 2434 2434 2434 2434 2451 2451 2451 2451 2451 2451 2451 2451 2434 2451 2451 2434 2451 2451 2469 2469 2469 2451 2451 2451 2451 2451 2434 2434 2451 2451 2434 2434 2434 2434 2451 2451 2451 2451 2451 2451 2451 2469 2469 2451 2487 2451 2451 2451 2451 2451 2434 2451 2451 2434 2451 2434 2434 2434 2434 2434 2434 2451 2451 2451 2469 2469 2451 2451 2451 2451 2451 2434 2434 2417 2417 2417 2417 2417 2417 2400 2417 2417 2417 2400 2400 2400 2400 2400 2367 2367 2384 1964 1975 1986 2400 2384 2400 2400 2400 2417 2417 2021 2021 2021 2021 2009 2009 2009 2021 2417 2417 2417 2417 2417 2417 2417 2434 2434 2434 2434 2434 2434 2434 2434 2434 2434 2434 2434 2434 2451 2434 2434 2451 2434 2434 2434 2434 2434 2434 2434 2417 2434 2434 2434 2434 2451 2451 2451 2451 2451 2451 2451 2469 2451 2451 2434 2451 2451 2451 2451 2451 2451 2451 2434 2434 2434 2451 2451 2434 2451 2451 2451 2451 2451 2451 2451 2451 2451 2451 2451 2451 2451 2451 2451 2451 2451 2451 2451 2451 2451 2451 2451 2451 2451 2451 2451 2469 2469 2451 2469 2469 2451 2451 2451 2451 2434 2434 2434 2434 2434 2451 2434 2434 2434 2434 2451 2451 2451 2451 2451 2451 2451 2451 2451 2451 2451 2451 2451 2451 2451 2451 2451 2451 2451 2434 2451 2434 2451 2434 2451 2451 2451 2451 2434 2434 2434 2434 2434 2434 2434 2451 2451 2451 2451 2451 2451 2451 2451 2451 2451 2451 2451 2451 2451 2451 2451 2451 2451 2451 2451 2434 2434 2451 2451 2451 2451 2451 2451 2451 2451 2451 2451 2451 2451 2451 2451 2451 2451 2451 2451 2451 2451 2451 2451 2451 2451 2451 2451 2451 2451 2451 2451 2451 2451 2451 2451 2451 2451 2451 2451 2451 2451 2451 2451 2451 2451 2451 2451 2469 2469 2487 2487 2487 2469 2469 2469 2469 2451 2451 2451 2451 2434 2434 2434 2434 2451 2451 2434 2451 2434 2434 2434 2434 2434 2434 2434 2434 2417 2434 2417 2417 2417 2417 2434 2434 2434 2434 2434 2417 2434 2434 2417 2434 2417 2417 2417 2417 2400 2384 2384 2384 2400 2400 2384 2400 2384 2384 2384 2367 2367 2367 2367 2351 2320 2320 2304 2289
    0 0 0 0 0 0 0 0 0 0 0 0 0 0 0 0 0 0 0 0 0 0 0 0 0 0 0 0 0 0 0 0 0 0 0 0 0 0 0 0 0 0 0 0 0 0 0 0 0 0 0 0 0 0 0 0 0 0 0 0 0 0 0 0 0 0 0 0 0 0 0 0 0 0 0 0 0 0 0 0 0 0 0 0 0 0 0 0 0 0 0 0 0 0 0 0 0 0 0 0 0 0 0 0 0 0 0 0 0 0 0 0 0 0 0 0 0 0 0 0 0 0 0 0 0 0 0 0 0 0 0 0 0 0 0 2469 2469 2469 2469 2469 2469 2487 2487 2469 2469 2469 2469 2487 2487 2487 2487 2505 2469 2469 2505 2469 2487 2487 2487 2487 2487 2469 2469 2469 2469 2469 2469 2469 2451 2469 2469 2469 2469 2469 2469 2469 2469 2469 2469 2469 2469 2469 2469 2469 2469 2469 2451 2469 2451 2469 2451 2469 2469 2469 2469 2469 2469 2469 2487 2469 2469 2469 2469 2469 2469 2469 2469 2469 2469 2469 2487 2451 2451 2451 2469 2451 2451 2469 2469 2469 2469 2451 2469 2451 2451 2451 2451 2451 2451 2451 2451 2451 2451 2451 2451 2451 2451 2434 2434 2434 2434 2434 2434 2434 2434 2434 2451 2434 2451 2434 2451 2451 2451 2451 2451 2451 2451 2469 2469 2469 2451 2469 2451 2451 2451 2434 2451 2451 2451 2451 2451 2469 2469 2469 2451 2469 2451 2451 2451 2434 2434 2451 2451 2434 2451 2451 2451 2451 2451 2451 2451 2451 2451 2487 2469 2487 2487 2487 2487 2451 2451 2469 2451 2451 2451 2451 2451 2451 2451 2451 2451 2451 2451 2451 2469 2451 2469 2469 2469 2451 2451 2451 2434 2451 2434 2417 2417 2417 2417 2417 2417 2417 2417 2417 1975 1975 1975 1975 1975 1952 1964 1964 1975 1975 1964 1964 1975 1975 1975 1975 1975 1975 2033 2033 2021 2009 2021 2021 2009 2009 2021 2021 2417 2417 2417 2417 2417 2417 2417 2434 2451 2451 2451 2434 2434 2451 2451 2434 2434 2434 2451 2451 2451 2451 2451 2451 2451 2451 2451 2434 2434 2434 2434 2434 2451 2451 2451 2451 2451 2451 2451 2469 2451 2469 2469 2469 2469 2469 2451 2451 2451 2451 2451 2451 2451 2451 2451 2451 2451 2451 2451 2451 2451 2451 2451 2451 2469 2451 2451 2451 2451 2451 2451 2451 2451 2451 2451 2451 2451 2451 2451 2451 2451 2451 2451 2451 2451 2451 2451 2451 2451 2451 2469 2451 2451 2451 2451 2451 2451 2451 2434 2451 2451 2451 2451 2434 2434 2451 2451 2451 2451 2451 2451 2451 2469 2469 2451 2451 2451 2451 2451 2451 2451 2451 2451 2451 2451 2451 2451 2434 2451 2451 2451 2451 2451 2469 2434 2434 2434 2451 2434 2451 2451 2451 2451 2451 2451 2451 2451 2451 2451 2451 2451 2451 2451 2451 2451 2451 2451 2451 2451 2451 2451 2451 2451 2451 2451 2451 2451 2469 2451 2469 2451 2469 2451 2451 2451 2451 2451 2451 2451 2451 2451 2451 2451 2451 2451 2451 2451 2451 2451 2451 2451 2451 2451 2451 2451 2451 2451 2451 2451 2451 2451 2451 2451 2451 2469 2451 2451 2469 2469 2469 2469 2487 2487 2487 2487 2487 2487 2487 2451 2451 2451 2451 2451 2451 2451 2451 2469 2469 2451 2451 2451 2434 2451 2434 2434 2434 2434 2434 2434 2434 2417 2417 2417 2417 2434 2434 2434 2434 2434 2434 2434 2434 2434 2434 2434 2434 2434 2417 2417 2384 2384 2384 2400 2400 2400 2400 2384 2384 2400 2367 2384 2367 2367 2351 2367 2335 2320 2304
    0 0 0 0 0 0 0 0 0 0 0 0 0 0 0 0 0 0 0 0 0 0 0 0 0 0 0 0 0 0 0 0 0 0 0 0 0 0 0 0 0 0 0 0 0 0 0 0 0 0 0 0 0 0 0 0 0 0 0 0 0 0 0 0 0 0 0 0 0 0 0 0 0 0 0 0 0 0 0 0 0 0 0 0 0 0 0 0 0 0 0 0 0 0 0 0 0 0 0 0 0 0 0 0 0 0 0 0 0 0 0 0 0 0 0 0 0 0 0 0 0 0 0 0 0 0 0 0 0 0 0 0 0 0 0 2469 2487 2487 2469 2469 2487 2487 2487 2469 2469 2469 2487 2487 2505 2487 2505 2505 2505 2469 2505 2505 2505 2505 2505 2487 2487 2469 2487 2469 2469 2469 2469 2469 2469 2469 2469 2469 2469 2451 2469 2469 2469 2469 2469 2469 2469 2469 2469 2487 2469 2469 2469 2469 2469 2469 2469 2487 2469 2469 2469 2469 2487 2487 2487 2469 2487 2487 2487 2487 2487 2487 2469 2487 2487 2487 2487 2487 2469 2487 2487 2487 2469 2469 2469 2469 2469 2469 2469 2451 2451 2451 2451 2451 2451 2469 2469 2451 2451 2451 2451 2451 2451 2451 2451 2451 2451 2434 2451 2451 2451 2451 2451 2451 2451 2451 2451 2451 2451 2451 2451 2451 2451 2469 2469 2469 2451 2469 2451 2469 2451 2451 2451 2451 2469 2469 2469 2469 2487 2487 2469 2487 2469 2469 2469 2451 2451 2451 2469 2451 2451 2451 2451 2451 2469 2451 2451 2469 2469 2469 2487 2487 2487 2487 2487 2487 2469 2469 2469 2469 2469 2469 2469 2469 2451 2451 2451 2451 2451 2451 2469 2451 2469 2469 2469 2451 2451 2451 2451 2451 2451 2434 2417 2417 2417 2417 2434 2009 1975 1975 1975 1975 1975 1975 1975 1964 1964 1964 1964 1964 1964 1964 1975 1975 1975 1975 1975 1975 1986 2009 1998 1998 1998 2009 2009 2009 2009 2021 2021 2009 2009 2417 2417 2434 2434 2434 2451 2451 2451 2434 2434 2451 2451 2451 2451 2451 2451 2451 2451 2451 2451 2451 2451 2451 2434 2434 2434 2434 2434 2434 2451 2451 2451 2451 2451 2451 2469 2469 2469 2469 2469 2469 2469 2469 2451 2451 2451 2451 2451 2451 2451 2451 2451 2451 2451 2451 2451 2451 2451 2451 2451 2451 2469 2469 2451 2451 2451 2451 2451 2451 2451 2451 2451 2451 2469 2451 2451 2451 2451 2451 2451 2451 2451 2451 2451 2469 2451 2451 2469 2451 2451 2451 2451 2451 2451 2451 2451 2451 2451 2451 2451 2434 2434 2451 2451 2451 2469 2451 2451 2469 2469 2469 2469 2451 2451 2451 2451 2451 2451 2451 2451 2434 2451 2434 2434 2434 2451 2451 2451 2469 2469 2469 2451 2451 2451 2451 2451 2451 2451 2451 2451 2451 2451 2451 2451 2451 2451 2451 2451 2451 2451 2451 2451 2451 2451 2451 2451 2451 2451 2451 2451 2451 2451 2451 2469 2469 2451 2469 2469 2469 2469 2451 2451 2451 2451 2469 2469 2451 2451 2469 2469 2469 2469 2469 2451 2451 2451 2451 2451 2451 2451 2451 2451 2451 2451 2451 2469 2469 2469 2469 2469 2469 2487 2469 2469 2487 2469 2487 2487 2487 2487 2487 2487 2487 2487 2487 2469 2451 2451 2451 2434 2451 2451 2451 2469 2469 2469 2469 2469 2451 2451 2451 2451 2451 2451 2451 2434 2451 2434 2434 2434 2434 2451 2451 2451 2451 2434 2434 2434 2434 2434 2434 2434 2434 2434 2434 2417 2417 2400 2384 2400 2400 2400 2417 2400 2400 2400 2400 2384 2384 2367 2367 2367 2367 2367 2304
    0 0 0 0 0 0 0 0 0 0 0 0 0 0 0 0 0 0 0 0 0 0 0 0 0 0 0 0 0 0 0 0 0 0 0 0 0 0 0 0 0 0 0 0 0 0 0 0 0 0 0 0 0 0 0 0 0 0 0 0 0 0 0 0 0 0 0 0 0 0 0 0 0 0 0 0 0 0 0 0 0 0 0 0 0 0 0 0 0 0 0 0 0 0 0 0 0 0 0 0 0 0 0 0 0 0 0 0 0 0 0 0 0 0 0 0 0 0 0 0 0 0 0 0 0 0 0 0 0 0 0 0 0 0 0 0 2487 2487 2487 2487 2487 2487 2505 2487 2487 2487 2487 2505 2505 2487 2505 2505 2505 2469 2505 2505 2505 2505 2505 2487 2487 2487 2487 2487 2487 2487 2469 2469 2469 2469 2469 2469 2469 2469 2469 2469 2469 2487 2487 2469 2487 2487 2487 2487 2487 2487 2469 2487 2487 2487 2487 2487 2487 2469 2487 2487 2487 2487 2487 2469 2487 2487 2487 2487 2487 2487 2487 2487 2487 2487 2487 2487 2487 2487 2487 2487 2487 2487 2487 2487 2469 2469 2469 2469 2451 2451 2451 2451 2451 2469 2469 2451 2469 2469 2469 2469 2469 2469 2469 2469 2451 2451 2451 2451 2451 2451 2451 2469 2469 2469 2469 2469 2469 2469 2469 2469 2469 2469 2469 2469 2469 2469 2469 2487 2469 2469 2469 2469 2469 2469 2469 2487 2487 2487 2469 2487 2487 2487 2469 2469 2451 2469 2469 2469 2469 2451 2469 2469 2469 2469 2469 2469 2469 2487 2487 2487 2487 2505 2487 2487 2469 2469 2469 2469 2487 2469 2469 2469 2469 2469 2469 2469 2469 2469 2469 2469 2469 2487 2487 2469 2469 2469 1986 1975 1975 1986 1986 1975 1975 1975 1998 1998 1975 1975 1964 1975 1964 1964 1964 1964 1964 1964 1964 1975 1964 1964 1975 1975 1964 1964 1964 1964 1975 1975 1975 1986 1986 1998 1998 1998 2009 2009 2009 2009 2009 2009 2009 2451 2451 2451 2469 2469 2451 2451 2451 2469 2451 2451 2451 2451 2469 2469 2469 2469 2469 2469 2451 2451 2451 2451 2451 2451 2451 2451 2451 2469 2469 2469 2469 2469 2469 2469 2469 2469 2469 2469 2469 2469 2451 2451 2451 2451 2451 2451 2451 2451 2451 2451 2451 2451 2451 2451 2451 2451 2469 2451 2469 2469 2451 2451 2451 2451 2451 2451 2451 2451 2451 2451 2469 2451 2451 2451 2451 2451 2451 2451 2451 2451 2451 2469 2469 2451 2451 2451 2451 2451 2451 2451 2451 2451 2451 2451 2451 2451 2451 2451 2451 2451 2451 2451 2469 2451 2469 2469 2469 2469 2469 2469 2451 2451 2451 2451 2469 2451 2451 2451 2451 2451 2451 2451 2451 2451 2451 2469 2469 2469 2451 2451 2451 2451 2451 2451 2451 2451 2451 2451 2451 2451 2451 2451 2469 2469 2451 2469 2469 2451 2469 2451 2451 2451 2451 2469 2469 2451 2469 2469 2469 2469 2469 2469 2469 2469 2469 2469 2469 2451 2451 2451 2451 2469 2469 2469 2469 2469 2469 2487 2469 2469 2469 2469 2451 2469 2451 2451 2451 2451 2469 2469 2451 2451 2469 2469 2469 2469 2469 2469 2487 2469 2469 2487 2487 2487 2505 2505 2505 2505 2505 2487 2505 2487 2487 2469 2451 2469 2451 2451 2451 2451 2469 2469 2469 2469 2487 2469 2469 2469 2451 2451 2451 2451 2434 2434 2434 2434 2434 2434 2451 2451 2451 2469 2434 2434 2434 2434 2434 2434 2451 2434 2451 2451 2434 2434 2417 2400 2417 2417 2417 2417 2417 2400 2417 2400 2384 2384 2367 2367 2367 2384 2384 2335
    0 0 0 0 0 0 0 0 0 0 0 0 0 0 0 0 0 0 0 0 0 0 0 0 0 0 0 0 0 0 0 0 0 0 0 0 0 0 0 0 0 0 0 0 0 0 0 0 0 0 0 0 0 0 0 0 0 0 0 0 0 0 0 0 0 0 0 0 0 0 0 0 0 0 0 0 0 0 0 0 0 0 0 0 0 0 0 0 0 0 0 0 0 0 0 0 0 0 0 0 0 0 0 0 0 0 0 0 0 0 0 0 0 0 0 0 0 0 0 0 0 0 0 0 0 0 0 0 0 0 0 0 0 0 0 2505 2523 2505 2505 2505 2505 2523 2505 2487 2487 2505 2505 2505 2505 2487 2487 2505 2505 2505 2505 2505 2505 2505 2505 2505 2505 2487 2505 2487 2487 2487 2487 2487 2487 2487 2487 2487 2487 2469 2469 2469 2487 2487 2487 2487 2487 2487 2487 2487 2487 2487 2487 2487 2487 2505 2505 2505 2487 2487 2487 2487 2487 2487 2487 2469 2487 2487 2505 2505 2505 2487 2487 2487 2487 2487 2487 2505 2487 2487 2505 2487 2487 2487 2487 2487 2487 2487 2469 2487 2469 2469 2469 2469 2469 2487 2487 2469 2469 2469 2469 2469 2469 2469 2469 2469 2469 2451 2469 2451 2469 2469 2451 2469 2469 2469 2469 2469 2469 2487 2469 2469 2469 2487 2487 2487 2469 2469 2487 2487 2487 2469 2487 2469 2487 2487 2487 2487 2487 2487 2469 2487 2487 2487 2469 2469 2469 2469 2469 2469 2469 2469 2469 2469 2469 2469 2469 2487 2487 2487 2487 2487 2487 2505 2487 2469 2469 2469 2469 2469 2487 2487 2487 2487 2487 2487 2487 2469 2469 2469 2487 2487 2487 2487 2487 2487 1986 1986 1975 1975 1975 1975 1975 1975 1975 1975 1975 1986 1964 1964 1964 1964 1964 1964 1964 1964 1964 1964 1964 1964 1964 1964 1964 1964 1952 1964 1952 1952 1964 1952 1975 1975 1964 1975 1986 1998 1998 1998 1986 1998 1998 1975 0 2009 2469 2469 2469 2469 2469 2451 2469 2469 2469 2469 2469 2451 2469 2469 2469 2469 2469 2469 2451 2451 2451 2451 2451 2451 2451 2451 2451 2469 2469 2469 2469 2469 2469 2469 2469 2469 2469 2487 2487 2487 2451 2469 2451 2469 2469 2469 2451 2469 2451 2451 2469 2451 2451 2451 2451 2451 2469 2469 2469 2469 2451 2469 2451 2451 2451 2451 2451 2451 2469 2469 2469 2469 2469 2469 2469 2451 2451 2451 2451 2451 2469 2469 2469 2451 2469 2451 2469 2451 2451 2451 2451 2451 2451 2451 2451 2469 2451 2451 2451 2451 2451 2469 2469 2469 2469 2469 2469 2469 2469 2469 2469 2469 2469 2469 2451 2451 2469 2451 2451 2451 2451 2451 2451 2469 2469 2469 2469 2469 2451 2451 2451 2451 2451 2451 2451 2451 2451 2451 2451 2451 2451 2451 2469 2469 2451 2469 2469 2451 2469 2451 2451 2451 2469 2469 2469 2469 2469 2469 2469 2469 2469 2469 2469 2469 2469 2469 2469 2451 2451 2451 2451 2469 2469 2469 2469 2487 2487 2487 2487 2487 2469 2487 2487 2487 2469 2469 2469 2469 2469 2469 2469 2469 2469 2469 2469 2469 2469 2469 2487 2487 2487 2487 2487 2487 2487 2505 2505 2505 2487 2487 2487 2487 2469 2469 2451 2469 2451 2451 2451 2469 2469 2469 2469 2487 2487 2487 2487 2469 2469 2469 2451 2434 2434 2434 2434 2434 2434 2451 2469 2469 2469 2469 2469 2469 2434 2451 2451 2451 2451 2451 2434 2451 2434 2434 2417 2417 2434 2434 2434 2434 2434 2417 2417 2417 2384 2384 2367 2367 2367 2384 2367 2351
    0 0 0 0 0 0 0 0 0 0 0 0 0 0 0 0 0 0 0 0 0 0 0 0 0 0 0 0 0 0 0 0 0 0 0 0 0 0 0 0 0 0 0 0 0 0 0 0 0 0 0 0 0 0 0 0 0 0 0 0 0 0 0 0 0 0 0 0 0 0 0 0 0 0 0 0 0 0 0 0 0 0 0 0 0 0 0 0 0 0 0 0 0 0 0 0 0 0 0 0 0 0 0 0 0 0 0 0 0 0 0 0 0 0 0 0 0 0 0 0 0 0 0 0 0 0 0 0 0 0 0 0 0 0 2523 2523 2523 2523 2523 2523 2523 2523 2523 2505 2505 2505 2505 2505 2505 2505 2505 2505 2505 2505 2505 2505 2505 2505 2505 2505 2505 2487 2505 2505 2487 2505 2487 2487 2487 2487 2487 2487 2487 2487 2487 2487 2487 2505 2505 2505 2487 2487 2505 2505 2487 2487 2487 2505 2505 2505 2505 2505 2505 2505 2505 2487 2487 2487 2487 2487 2487 2487 2505 2505 2505 2505 2505 2487 2505 2505 2487 2487 2505 2487 2505 2505 2487 2505 2487 2487 2487 2487 2487 2469 2469 2451 2469 2469 2469 2487 2487 2469 2469 2469 2487 2469 2469 2469 2469 2469 2469 2469 2469 2469 2469 2469 2469 2469 2469 2487 2469 2469 2469 2487 2469 2469 2469 2487 2487 2487 2487 2487 2487 2487 2487 2487 2487 2487 2487 2487 2487 2487 2487 2487 2487 2487 2487 2487 2469 2469 2469 2469 2487 2469 2487 2469 2469 2487 2487 2469 2469 2487 2487 2487 2487 2487 2487 2487 2487 2487 2487 2487 2487 2487 2487 2487 2487 2487 2487 2487 2487 2487 2487 2487 2487 2487 2487 2487 2487 2487 1975 1975 1975 1975 1975 1975 1975 1975 1964 1964 1964 1975 1964 1952 1952 1964 1964 1964 1952 1952 1952 1952 1952 1964 1952 1964 1952 1941 1941 1941 1941 1941 1952 1952 1952 1964 1964 1964 1975 1975 1975 1975 1975 1964 1975 1975 1964 2009 2009 2469 2487 2487 2469 2469 2469 2469 2469 2469 2469 2469 2469 2469 2469 2469 2469 2469 2451 2451 2451 2451 2451 2451 2451 2451 2469 2469 2469 2469 2469 2487 2487 2469 2487 2487 2469 2469 2469 2469 2451 2469 2451 2469 2469 2469 2469 2469 2469 2469 2469 2469 2469 2469 2469 2469 2469 2469 2469 2451 2451 2451 2451 2469 2469 2469 2451 2469 2469 2469 2469 2469 2469 2469 2469 2469 2469 2469 2469 2469 2469 2469 2469 2469 2469 2451 2451 2469 2469 2469 2469 2469 2451 2469 2469 2469 2469 2469 2451 2469 2469 2469 2469 2469 2469 2469 2487 2469 2469 2469 2469 2469 2451 2469 2469 2469 2469 2469 2451 2451 2451 2451 2451 2469 2451 2469 2469 2469 2451 2469 2451 2469 2469 2469 2451 2469 2469 2451 2451 2469 2469 2469 2469 2469 2469 2469 2469 2469 2469 2469 2451 2469 2469 2469 2487 2469 2487 2487 2487 2469 2487 2469 2469 2469 2469 2469 2469 2451 2469 2469 2469 2469 2469 2469 2469 2487 2487 2487 2487 2487 2487 2487 2487 2487 2487 2487 2469 2469 2469 2469 2469 2469 2469 2469 2469 2469 2469 2469 2487 2487 2487 2505 2487 2487 2487 2505 2505 2505 2487 2487 2487 2505 2487 2469 2469 2469 2469 2469 2469 2469 2487 2487 2487 2487 2487 2487 2487 2487 2487 2487 2487 2469 2451 2451 2451 2451 2451 2469 2469 2469 2469 2469 2469 2434 2434 2451 2451 2451 2451 2434 2451 2451 2434 2434 2417 2417 2434 2434 2434 2434 2434 2434 2434 2417 2400 2384 2384 2384 2351 2367 2351 2351
    0 0 0 0 0 0 0 0 0 0 0 0 0 0 0 0 0 0 0 0 0 0 0 0 0 0 0 0 0 0 0 0 0 0 0 0 0 0 0 0 0 0 0 0 0 0 0 0 0 0 0 0 0 0 0 0 0 0 0 0 0 0 0 0 0 0 0 0 0 0 0 0 0 0 0 0 0 0 0 0 0 0 0 0 0 0 0 0 0 0 0 0 0 0 0 0 0 0 0 0 0 0 0 0 0 0 0 0 0 0 0 0 0 0 0 0 0 0 0 0 0 0 0 0 0 0 0 0 0 0 0 0 0 2523 2523 2523 2523 2523 2523 2523 2542 2523 2542 2523 2523 2523 2523 2523 2523 2505 2505 2505 2505 2505 2505 2505 2505 2505 2505 2505 2505 2505 2505 2505 2505 2505 2487 2487 2487 2487 2469 2487 2487 2487 2487 2505 2505 2505 2505 2505 2487 2487 2505 2505 2505 2487 2505 2487 2505 2505 2505 2505 2505 2505 2505 2505 2505 2487 2487 2487 2505 2505 2505 2505 2505 2505 2505 2505 2505 2505 2505 2505 2505 2505 2505 2505 2505 2505 2505 2487 2487 2487 2487 2469 2469 2451 2469 2487 2487 2487 2487 2487 2487 2487 2487 2487 2487 2487 2487 2469 2469 2469 2469 2469 2469 2469 2469 2487 2487 2487 2487 2487 2487 2487 2487 2487 2487 2487 2487 2487 2487 2487 2487 2487 2487 2487 2487 2487 2487 2487 2487 2487 2487 2487 2487 2487 2487 2487 2487 2469 2469 2487 2487 2487 2487 2487 2487 2487 2487 2487 2487 2487 2487 2487 2487 2487 2487 2487 2487 2487 2487 2487 2487 2487 2487 2487 2487 2487 2487 2487 2487 2487 2487 2487 2487 2487 2487 2487 1986 1975 1964 1964 1964 1964 1964 1964 1964 1964 1952 1952 1952 1952 1941 1941 1952 1952 1952 1952 1952 1941 1941 1941 1941 1931 1931 1931 1941 1931 1931 1941 1931 1941 1941 1941 1952 1952 1952 1964 1964 1964 1964 1964 1964 1964 1964 1964 1964 1964 1975 2487 2487 2487 2469 2469 2469 2487 2469 2469 2469 2469 2469 2469 2469 2469 2469 2469 2451 2469 2451 2451 2451 2451 2451 2451 2469 2469 2487 2487 2487 2487 2487 2487 2487 2487 2487 2469 2487 2469 2451 2469 2451 2469 2469 2469 2469 2469 2469 2469 2487 2469 2469 2451 2469 2469 2469 2451 2469 2469 2469 2469 2469 2469 2469 2469 2469 2469 2469 2469 2469 2469 2469 2469 2487 2487 2469 2469 2451 2469 2469 2469 2469 2469 2469 2469 2469 2469 2469 2469 2469 2469 2469 2469 2469 2469 2469 2469 2469 2469 2469 2469 2469 2469 2469 2487 2487 2487 2487 2487 2469 2469 2469 2469 2469 2469 2469 2469 2469 2451 2469 2451 2469 2469 2469 2469 2469 2469 2451 2469 2469 2469 2451 2469 2451 2451 2451 2451 2451 2451 2469 2469 2487 2469 2469 2469 2469 2451 2469 2469 2469 2469 2469 2469 2487 2469 2487 2487 2487 2487 2487 2487 2487 2487 2469 2487 2469 2469 2469 2469 2469 2469 2469 2469 2469 2487 2487 2487 2487 2487 2487 2487 2487 2487 2487 2487 2487 2487 2487 2487 2487 2487 2487 2469 2487 2487 2487 2487 2505 2505 2487 2505 2505 2487 2505 2505 2505 2505 2487 2487 2487 2487 2469 2469 2451 2469 2451 2469 2469 2469 2487 2487 2487 2487 2487 2487 2487 2487 2487 2487 2487 2487 2469 2469 2469 2451 2469 2469 2487 2487 2487 2487 2487 2487 2434 2451 2451 2451 2451 2451 2451 2451 2434 2434 2417 2417 2434 2434 2434 2434 2434 2434 2434 2417 2400 2384 2384 2400 2367 2367 2367 2367
    0 0 0 0 0 0 0 0 0 0 0 0 0 0 0 0 0 0 0 0 0 0 0 0 0 0 0 0 0 0 0 0 0 0 0 0 0 0 0 0 0 0 0 0 0 0 0 0 0 0 0 0 0 0 0 0 0 0 0 0 0 0 0 0 0 0 0 0 0 0 0 0 0 0 0 0 0 0 0 0 0 0 0 0 0 0 0 0 0 0 0 0 0 0 0 0 0 0 0 0 0 0 0 0 0 0 0 0 0 0 0 0 0 0 0 0 0 0 0 0 0 0 0 0 0 0 0 0 0 0 0 0 0 2523 2542 2542 2542 2542 2542 2542 2542 2523 2542 2505 2505 2523 2523 2523 2523 2505 2523 2523 2505 2523 2523 2505 2505 2505 2505 2505 2505 2505 2505 2505 2487 2505 2487 2487 2469 2487 2469 2469 2487 2487 2505 2505 2505 2505 2505 2505 2505 2505 2505 2505 2505 2487 2487 2487 2505 2505 2505 2505 2505 2505 2505 2505 2505 2505 2505 2505 2505 2505 2505 2505 2505 2505 2505 2505 2505 2505 2505 2505 2505 2505 2505 2505 2505 2505 2505 2505 2505 2487 2487 2487 2487 2469 2487 2505 2505 2505 2505 2487 2487 2487 2487 2487 2487 2487 2487 2487 2487 2487 2487 2487 2487 2487 2487 2487 2487 2487 2487 2487 2487 2487 2487 2487 2487 2487 2487 2487 2487 2487 2487 2487 2487 2487 2487 2487 2487 2487 2487 2487 2487 2487 2487 2487 2487 2487 2487 2487 2487 2487 2487 2487 2487 2487 2487 2487 2487 2487 2487 2487 2487 2487 2487 2487 2487 2487 2487 2487 2487 2487 2487 2487 2487 2487 2487 2487 2487 2487 2469 2469 2469 2469 2487 2487 1975 1975 1975 1964 1964 1964 1964 1964 1964 1964 1964 1952 1952 1952 1941 1952 1941 1941 1941 1952 1952 1941 1941 1941 1941 1931 1941 1931 1931 1931 1941 1931 1931 1931 1931 1941 1941 1941 1941 1952 1952 1952 1952 1952 1952 1952 1952 1952 1952 1941 1952 1964 1975 1975 2021 2469 2469 2469 2487 2487 2469 2469 2487 2469 2487 2487 2487 2469 2487 2487 2469 2469 2451 2451 2451 2469 2469 2469 2469 2487 2487 2487 2487 2505 2487 2487 2487 2487 2487 2487 2487 2487 2469 2469 2469 2469 2469 2469 2469 2469 2469 2469 2469 2469 2469 2469 2469 2469 2469 2469 2469 2487 2469 2469 2469 2469 2469 2469 2469 2469 2487 2487 2487 2487 2469 2487 2487 2487 2469 2469 2487 2487 2487 2487 2487 2469 2469 2469 2469 2469 2469 2469 2469 2469 2469 2469 2469 2469 2469 2469 2469 2469 2487 2487 2487 2487 2487 2487 2487 2487 2487 2487 2487 2469 2469 2469 2469 2469 2469 2469 2469 2469 2469 2469 2469 2469 2469 2487 2487 2487 2469 2469 2469 2469 2469 2469 2451 2451 2451 2451 2451 2451 2469 2469 2487 2469 2487 2487 2487 2469 2487 2451 2469 2469 2469 2487 2487 2487 2487 2487 2487 2487 2487 2487 2487 2487 2487 2469 2469 2469 2469 2469 2469 2469 2469 2469 2469 2487 2487 2487 2487 2505 2487 2487 2487 2505 2487 2487 2487 2487 2487 2487 2487 2487 2487 2487 2487 2487 2487 2487 2505 2505 2487 2505 2505 2505 2505 2505 2505 2505 2505 2487 2487 2505 2487 2469 2451 2469 2451 2469 2451 2469 2487 2487 2487 2487 2505 2487 2505 2505 2505 2505 2487 2487 2469 2469 2469 2469 2469 2469 2487 2487 2487 2487 2487 2487 2434 2434 2451 2451 2451 2434 2451 2451 2451 2434 2434 2434 2434 2434 2434 2434 2434 2434 2417 2417 2400 2400 2400 2400 2400 2400 2400 2417
    0 0 0 0 0 0 0 0 0 0 0 0 0 0 0 0 0 0 0 0 0 0 0 0 0 0 0 0 0 0 0 0 0 0 0 0 0 0 0 0 0 0 0 0 0 0 0 0 0 0 0 0 0 0 0 0 0 0 0 0 0 0 0 0 0 0 0 0 0 0 0 0 0 0 0 0 0 0 0 0 0 0 0 0 0 0 0 0 0 0 0 0 0 0 0 0 0 0 0 0 0 0 0 0 0 0 0 0 0 0 0 0 0 0 0 0 0 0 0 0 0 0 0 0 0 0 0 0 0 0 0 0 2523 2523 2542 2542 2542 2542 2542 2542 2542 2542 2523 2505 2505 2505 2523 2523 2523 2523 2523 2523 2523 2523 2523 2523 2523 2523 2523 2505 2523 2505 2505 2505 2505 2505 2505 2505 2487 2487 2487 2487 2505 2505 2505 2505 2505 2505 2505 2505 2505 2505 2505 2505 2505 2505 2505 2505 2505 2505 2505 2505 2505 2505 2505 2505 2505 2505 2505 2505 2505 2505 2505 2505 2505 2505 2505 2505 2505 2505 2505 2505 2505 2505 2505 2505 2505 2505 2505 2505 2505 2505 2505 2505 2505 2487 2487 2505 2505 2505 2505 2487 2487 2487 2487 2487 2487 2487 2487 2487 2487 2487 2487 2487 2487 2487 2487 2487 2487 2505 2487 2487 2487 2487 2487 2487 2487 2487 2487 2487 2487 2487 2487 2505 2505 2487 2487 2487 2505 2487 2487 2487 2487 2487 2487 2487 2487 2487 2487 2487 2487 2487 2487 2487 2487 2487 2487 2487 2487 2487 2487 2487 2487 2487 2487 2487 2505 2487 2487 2487 2487 2487 2487 2487 2487 2487 2487 2487 2487 2487 2469 2469 1986 1986 1975 1975 1975 1975 1975 1964 1952 1952 1952 1952 1952 1952 1952 1941 1941 1941 1941 1941 1931 1941 1931 1941 1941 1931 1931 1931 1931 1931 1931 1931 1931 1931 1931 1931 1931 1931 1931 1931 1931 1941 1941 1941 1941 1941 1952 1941 1941 1941 1941 1941 1941 1941 1952 1964 1975 1975 1986 1986 1986 1986 1986 1986 1986 2469 2469 2469 2487 2487 2487 2469 2487 2487 2469 2469 2451 2469 2469 2469 2469 2469 2487 2487 2487 2505 2487 2505 2487 2487 2487 2487 2487 2487 2487 2487 2469 2469 2469 2469 2469 2469 2469 2469 2469 2487 2469 2469 2469 2469 2469 2469 2469 2469 2469 2487 2487 2487 2487 2469 2487 2487 2487 2487 2487 2487 2505 2505 2505 2505 2505 2505 2487 2487 2487 2487 2505 2505 2487 2487 2487 2469 2487 2487 2487 2469 2469 2487 2469 2469 2469 2487 2487 2487 2487 2487 2487 2487 2487 2487 2487 2505 2505 2487 2487 2505 2505 2505 2469 2487 2505 2505 2505 2469 2469 2469 2469 2469 2469 2469 2469 2487 2487 2487 2451 2469 2469 2469 2469 2469 2469 2469 2469 2451 2451 2469 2469 2469 2487 2469 2469 2487 2469 2469 2487 2451 2469 2487 2487 2487 2487 2487 2487 2487 2505 2505 2505 2505 2487 2487 2487 2469 2469 2469 2469 2469 2451 2469 2469 2469 2469 2487 2487 2505 2505 2505 2505 2505 2505 2505 2487 2487 2487 2487 2505 2505 2487 2505 2487 2487 2487 2487 2487 2487 2505 2505 2505 2505 2505 2505 2505 2505 2505 2505 2505 2505 2505 2505 2487 2469 2469 2469 2469 2469 2469 2469 2487 2487 2487 2505 2505 2505 2487 2505 2487 2487 2487 2487 2469 2469 2469 2469 2487 2487 2487 2487 2487 2487 2487 2487 2451 2451 2469 2451 2451 2451 2451 2469 2451 2434 2434 2434 2434 2434 2434 2434 2434 2434 2417 2417 2417 2417 2417 2417 2417 2400 2417 2417
    0 0 0 0 0 0 0 0 0 0 0 0 0 0 0 0 0 0 0 0 0 0 0 0 0 0 0 0 0 0 0 0 0 0 0 0 0 0 0 0 0 0 0 0 0 0 0 0 0 0 0 0 0 0 0 0 0 0 0 0 0 0 0 0 0 0 0 0 0 0 0 0 0 0 0 0 0 0 0 0 0 0 0 0 0 0 0 0 0 0 0 0 0 0 0 0 0 0 0 0 0 0 0 0 0 0 0 0 0 0 0 0 0 0 0 0 0 0 0 0 0 0 0 0 0 0 0 0 0 0 0 0 2523 2523 2542 2542 2542 2542 2542 2542 2542 2542 2542 2505 2505 2505 2523 2523 2523 2523 2523 2523 2523 2523 2523 2523 2523 2523 2523 2523 2523 2505 2523 2523 2505 2505 2505 2505 2505 2487 2487 2505 2505 2505 2505 2505 2505 2523 2505 2523 2505 2505 2505 2505 2505 2505 2505 2505 2505 2505 2505 2505 2523 2523 2523 2523 2523 2505 2505 2505 2505 2505 2505 2505 2505 2505 2505 2505 2505 2505 2505 2523 2505 2505 2505 2505 2505 2505 2505 2505 2505 2505 2505 2505 2505 2505 2505 2505 2505 2505 2505 2487 2487 2487 2505 2487 2487 2487 2487 2487 2487 2487 2487 2487 2487 2505 2487 2505 2505 2505 2505 2505 2487 2487 2487 2487 2487 2487 2487 2487 2487 2487 2505 2505 2505 2505 2505 2505 2505 2505 2487 2487 2487 2487 2487 2487 2487 2487 2487 2487 2487 2487 2487 2487 2487 2487 2487 2487 2487 2487 2487 2487 2487 2505 2505 2505 2505 2505 2505 2487 2505 2487 2487 2487 2487 2487 2487 2487 2487 2487 1986 1975 1975 1975 1975 1975 1975 1964 1964 1952 1952 1952 1941 1941 1941 1941 1941 1931 1931 1931 1931 1931 1931 1931 1931 1931 1931 1931 1931 1931 1931 1931 1931 1920 1920 1920 1931 1920 1931 1931 1920 1931 1931 1931 1931 1941 1931 1941 1941 1941 1941 1941 1941 1941 1941 1941 1952 1952 1964 1975 1975 1975 1986 1986 1986 1986 1986 1986 1986 1986 2487 2487 2487 2487 2487 2487 2469 2469 2469 2469 2487 2487 2487 2487 2487 2505 2505 2505 2505 2505 2505 2505 2487 2487 2487 2487 2487 2487 2469 2487 2469 2487 2487 2487 2469 2487 2487 2487 2487 2487 2487 2487 2487 2487 2487 2487 2487 2487 2487 2487 2487 2487 2487 2487 2505 2487 2505 2505 2505 2505 2505 2505 2505 2505 2505 2505 2505 2505 2505 2505 2487 2487 2505 2505 2505 2487 2487 2487 2487 2487 2469 2487 2487 2487 2487 2487 2487 2487 2505 2505 2505 2487 2505 2505 2505 2505 2505 2505 2505 2523 2505 2505 2505 2523 2523 2469 2523 2469 2505 2469 2469 2469 2469 2487 2487 2487 2469 2469 2469 2469 2469 2469 2469 2469 2469 2469 2469 2469 2469 2487 2487 2487 2487 2487 2487 2469 2487 2487 2487 2487 2487 2487 2487 2487 2505 2505 2505 2505 2505 2505 2505 2505 2487 2487 2487 2469 2469 2469 2469 2469 2469 2487 2487 2505 2505 2505 2505 2505 2505 2505 2505 2505 2505 2505 2505 2505 2505 2505 2505 2505 2505 2487 2505 2487 2505 2505 2505 2505 2505 2505 2505 2505 2505 2505 2505 2505 2505 2505 2505 2505 2505 2487 2487 2487 2469 2487 2469 2487 2487 2505 2505 2505 2505 2505 2505 2505 2505 2487 2487 2487 2469 2469 2469 2469 2487 2487 2487 2505 2487 2487 2487 2487 2487 2451 2469 2451 2451 2451 2451 2451 2451 2434 2434 2434 2434 2434 2434 2434 2434 2434 2434 2417 2417 2417 2417 2417 2417 2417 2417 2417
    0 0 0 0 0 0 0 0 0 0 0 0 0 0 0 0 0 0 0 0 0 0 0 0 0 0 0 0 0 0 0 0 0 0 0 0 0 0 0 0 0 0 0 0 0 0 0 0 0 0 0 0 0 0 0 0 0 0 0 0 0 0 0 0 0 0 0 0 0 0 0 0 0 0 0 0 0 0 0 0 0 0 0 0 0 0 0 0 0 0 0 0 0 0 0 0 0 0 0 0 0 0 0 0 0 0 0 0 0 0 0 0 0 0 0 0 0 0 0 0 0 0 0 0 0 0 0 0 0 0 0 0 2523 2523 2542 2542 2542 2542 2542 2542 2542 2542 2542 2505 2523 2523 2523 2523 2523 2523 2523 2523 2523 2523 2523 2523 2523 2523 2523 2505 2523 2523 2523 2523 2523 2523 2523 2523 2523 2505 2505 2505 2523 2523 2523 2523 2523 2523 2523 2523 2505 2505 2523 2523 2523 2523 2505 2505 2505 2523 2505 2505 2505 2505 2523 2523 2523 2505 2505 2523 2523 2523 2523 2505 2505 2505 2523 2505 2523 2523 2505 2523 2523 2523 2523 2523 2505 2523 2523 2505 2523 2505 2505 2505 2505 2505 2505 2505 2505 2505 2523 2505 2505 2505 2505 2487 2487 2487 2487 2487 2487 2487 2487 2487 2505 2505 2505 2505 2505 2505 2505 2505 2487 2505 2487 2487 2505 2505 2505 2505 2505 2505 2505 2505 2505 2505 2505 2505 2505 2505 2505 2505 2487 2487 2487 2487 2487 2487 2487 2487 2487 2487 2505 2505 2487 2505 2487 2487 2487 2487 2487 2487 2487 2487 2505 2505 2505 2505 2505 2505 2505 2505 2505 2487 2487 2487 2487 2487 2469 1986 1986 1975 1975 1975 1975 1964 1964 1964 1964 1952 1941 1941 1941 1941 1931 1931 1931 1931 1931 1931 1931 1931 1931 1931 1931 1931 1931 1931 1920 1920 1920 1920 1920 1920 1920 1920 1920 1920 1920 1920 1920 1931 1931 1931 1931 1941 1931 1941 1941 1941 1931 1931 1931 1931 1931 1931 1941 1952 1964 1964 1975 1975 1975 1986 1975 1975 1986 1986 1986 1986 1986 2487 2487 2487 2487 2505 2487 2487 2487 2487 2505 2505 2505 2487 2505 2505 2505 2505 2505 2505 2505 2505 2505 2505 2505 2505 2505 2505 2469 2487 2487 2487 2487 2487 2487 2487 2487 2487 2505 2505 2505 2523 2505 2487 2487 2487 2487 2487 2487 2487 2487 2487 2487 2487 2505 2487 2505 2505 2505 2505 2523 2505 2523 2523 2505 2505 2505 2505 2505 2505 2487 2487 2487 2505 2505 2487 2487 2469 2487 2487 2487 2487 2487 2505 2505 2505 2505 2505 2505 2505 2505 2505 2505 2505 2505 2505 2505 2505 2523 2523 2505 2523 2523 2523 2523 2523 2523 2505 2505 2505 2505 2505 2487 2505 2505 2505 2487 2487 2487 2487 2487 2487 2469 2469 2469 2469 2469 2469 2487 2487 2487 2487 2487 2487 2487 2487 2487 2487 2487 2487 2487 2487 2505 2487 2505 2505 2505 2505 2505 2505 2505 2505 2505 2487 2487 2487 2487 2487 2469 2469 2469 2487 2487 2487 2487 2505 2505 2505 2505 2505 2505 2505 2505 2505 2505 2505 2523 2505 2505 2523 2505 2505 2505 2505 2505 2505 2523 2523 2523 2523 2523 2505 2523 2505 2505 2505 2505 2505 2505 2505 2505 2505 2487 2487 2487 2487 2487 2487 2505 2505 2505 2505 2505 2505 2505 2505 2505 2505 2487 2487 2487 2487 2487 2487 2505 2505 2487 2487 2487 2469 2487 2487 2487 2469 2469 2469 2451 2469 2451 2469 2451 2451 2434 2434 2451 2451 2451 2451 2451 2451 2434 2434 2417 2417 2417 2417 2417 2400 2417 2417
    0 0 0 0 0 0 0 0 0 0 0 0 0 0 0 0 0 0 0 0 0 0 0 0 0 0 0 0 0 0 0 0 0 0 0 0 0 0 0 0 0 0 0 0 0 0 0 0 0 0 0 0 0 0 0 0 0 0 0 0 0 0 0 0 0 0 0 0 0 0 0 0 0 0 0 0 0 0 0 0 0 0 0 0 0 0 0 0 0 0 0 0 0 0 0 0 0 0 0 0 0 0 0 0 0 0 0 0 0 0 0 0 0 0 0 0 0 0 0 0 0 0 0 0 0 0 0 0 0 0 0 2505 2523 2523 2542 2542 2542 2542 2542 2542 2542 2560 2542 2523 2523 2523 2523 2523 2523 2523 2523 2523 2523 2523 2523 2523 2523 2523 2523 2505 2523 2523 2523 2523 2505 2523 2523 2523 2505 2505 2505 2523 2523 2523 2523 2523 2523 2523 2523 2523 2523 2505 2523 2523 2523 2523 2523 2505 2523 2523 2523 2505 2505 2505 2523 2523 2505 2505 2505 2505 2523 2523 2523 2505 2523 2523 2505 2523 2523 2523 2523 2523 2523 2523 2523 2523 2505 2523 2523 2523 2523 2505 2505 2505 2505 2505 2505 2505 2523 2505 2523 2505 2505 2505 2505 2505 2487 2505 2487 2487 2487 2487 2487 2505 2505 2505 2505 2505 2505 2505 2505 2505 2505 2505 2505 2505 2505 2505 2505 2505 2505 2505 2505 2505 2505 2505 2505 2505 2505 2505 2505 2505 2505 2505 2505 2505 2505 2505 2505 2505 2505 2505 2505 2505 2505 2505 2505 2505 2505 2487 2505 2487 2487 2487 2505 2505 2505 2505 2505 2505 2505 2505 2505 2505 2487 2487 2487 2469 1986 1986 1986 1975 1975 1975 1964 1964 1964 1964 1964 1941 1941 1941 1931 1931 1931 1931 1920 1920 1920 1920 1931 1920 1920 1920 1920 1931 1931 1931 1920 1920 1920 1920 1920 1920 1920 1920 1920 1920 1920 1920 1920 1920 1931 1931 1931 1931 1931 1931 1931 1931 1931 1931 1931 1931 1931 1931 1941 1941 1952 1964 1964 1975 1975 1975 1975 1975 1975 1975 1986 1986 1986 1998 2487 2487 2505 2505 2505 2505 2487 2487 2505 2505 2505 2505 2505 2505 2505 2505 2505 2523 2505 2523 2505 2505 2505 2505 2505 2505 2469 2487 2487 2487 2487 2487 2487 2487 2505 2505 2505 2505 2523 2523 2523 2523 2505 2505 2487 2505 2487 2487 2487 2487 2487 2505 2505 2505 2505 2505 2505 2523 2523 2523 2523 2523 2523 2523 2505 2505 2505 2523 2505 2505 2523 2523 2505 2505 2505 2487 2487 2505 2487 2487 2505 2505 2505 2505 2505 2505 2523 2523 2505 2505 2505 2505 2505 2505 2505 2505 2523 2523 2523 2523 2523 2523 2523 2523 2523 2523 2523 2523 2523 2523 2505 2505 2505 2505 2487 2487 2487 2487 2487 2487 2487 2469 2469 2469 2487 2487 2487 2487 2487 2487 2487 2487 2487 2487 2487 2487 2487 2487 2487 2487 2487 2487 2505 2505 2505 2505 2505 2505 2505 2505 2505 2505 2505 2505 2505 2505 2487 2487 2487 2487 2487 2505 2505 2505 2505 2505 2505 2505 2505 2505 2505 2523 2523 2523 2523 2523 2523 2523 2523 2505 2505 2505 2523 2523 2523 2523 2523 2523 2523 2523 2523 2523 2523 2523 2523 2523 2523 2505 2505 2505 2505 2505 2487 2487 2487 2505 2505 2505 2523 2523 2505 2505 2505 2505 2505 2505 2487 2487 2487 2487 2487 2487 2505 2505 2487 2487 2487 2469 2487 2487 2487 2469 2469 2469 2451 2469 2469 2469 2451 2451 2451 2434 2451 2451 2451 2451 2451 2451 2451 2434 2434 2434 2417 2417 2417 2417 2417 2417
    0 0 0 0 0 0 0 0 0 0 0 0 0 0 0 0 0 0 0 0 0 0 0 0 0 0 0 0 0 0 0 0 0 0 0 0 0 0 0 0 0 0 0 0 0 0 0 0 0 0 0 0 0 0 0 0 0 0 0 0 0 0 0 0 0 0 0 0 0 0 0 0 0 0 0 0 0 0 0 0 0 0 0 0 0 0 0 0 0 0 0 0 0 0 0 0 0 0 0 0 0 0 0 0 0 0 0 0 0 0 0 0 0 0 0 0 0 0 0 0 0 0 0 0 0 0 0 0 0 0 0 2523 2523 2523 2542 2542 2542 2542 2560 2542 2560 2560 2560 2523 2542 2542 2542 2542 2542 2542 2542 2523 2523 2523 2505 2523 2523 2523 2523 2523 2523 2523 2523 2523 2523 2523 2523 2523 2505 2505 2523 2523 2523 2560 2542 2523 2523 2523 2523 2523 2523 2523 2523 2523 2523 2523 2523 2523 2523 2523 2523 2523 2523 2523 2523 2523 2523 2523 2523 2523 2523 2523 2523 2523 2523 2523 2523 2523 2523 2542 2523 2542 2523 2523 2523 2523 2523 2523 2523 2523 2523 2523 2505 2505 2523 2505 2505 2505 2523 2523 2523 2505 2505 2505 2505 2505 2505 2505 2505 2505 2505 2505 2505 2505 2505 2505 2505 2505 2505 2505 2505 2505 2505 2505 2505 2505 2505 2505 2505 2505 2505 2505 2505 2505 2505 2505 2505 2505 2505 2505 2505 2505 2505 2505 2505 2505 2505 2505 2505 2505 2505 2505 2505 2505 2505 2505 2505 2505 2505 2505 2505 2505 2505 2505 2505 2505 2505 2505 2505 2505 2505 2505 2505 2505 2487 2487 2469 1986 1986 1986 1986 1975 1975 1964 1964 1964 1952 1952 1952 1931 1931 1931 1931 1920 1920 1920 1920 1920 1920 1920 1920 1920 1920 1920 1920 1920 1920 1920 1920 1920 1920 1920 1909 1909 1909 1909 1909 1909 1920 1909 1920 1920 1920 1931 1920 1931 1931 1931 1931 1931 1931 1931 1931 1920 1920 1931 1931 1931 1941 1964 1952 1964 1975 1975 1975 1975 1975 1975 1986 1975 1986 1998 2505 2505 2505 2505 2505 2505 2505 2505 2523 2523 2523 2523 2523 2523 2523 2523 2523 2523 2523 2523 2523 2505 2523 2523 2505 2505 2487 2487 2487 2505 2487 2505 2487 2487 2505 2505 2505 2505 2523 2523 2523 2523 2505 2505 2505 2505 2505 2505 2505 2505 2505 2505 2523 2505 2523 2505 2523 2523 2523 2523 2523 2523 2523 2523 2523 2523 2505 2523 2505 2523 2523 2523 2523 2523 2523 2505 2505 2505 2505 2505 2505 2505 2523 2505 2505 2523 2523 2523 2523 2523 2523 2523 2523 2523 2523 2523 2523 2523 2523 2523 2523 2523 2523 2542 2523 2523 2523 2523 2523 2523 2523 2523 2505 2523 2505 2505 2505 2487 2487 2487 2487 2487 2487 2487 2505 2505 2505 2505 2505 2505 2505 2505 2487 2487 2505 2487 2505 2505 2487 2487 2505 2505 2505 2505 2505 2505 2505 2505 2505 2505 2523 2505 2505 2505 2505 2505 2487 2487 2487 2505 2505 2505 2505 2505 2505 2505 2505 2505 2505 2505 2505 2505 2505 2505 2523 2505 2505 2523 2523 2523 2523 2523 2523 2523 2523 2523 2523 2523 2523 2523 2523 2523 2523 2523 2523 2523 2523 2523 2523 2505 2505 2505 2487 2505 2505 2505 2505 2505 2523 2505 2505 2505 2505 2505 2505 2505 2505 2505 2505 2505 2505 2505 2505 2505 2487 2505 2487 2469 2487 2487 2487 2487 2469 2469 2469 2469 2469 2469 2469 2469 2451 2451 2451 2451 2451 2451 2451 2451 2451 2434 2434 2434 2434 2434 2417 2417 2434 2434
    0 0 0 0 0 0 0 0 0 0 0 0 0 0 0 0 0 0 0 0 0 0 0 0 0 0 0 0 0 0 0 0 0 0 0 0 0 0 0 0 0 0 0 0 0 0 0 0 0 0 0 0 0 0 0 0 0 0 0 0 0 0 0 0 0 0 0 0 0 0 0 0 0 0 0 0 0 0 0 0 0 0 0 0 0 0 0 0 0 0 0 0 0 0 0 0 0 0 0 0 0 0 0 0 0 0 0 0 0 0 0 0 0 0 0 0 0 0 0 0 0 0 0 0 0 0 0 0 0 0 0 2523 2523 2523 2542 2560 2560 2560 2542 2560 2560 2560 2560 2523 2542 2542 2542 2542 2542 2542 2542 2542 2542 2523 2523 2523 2523 2523 2523 2523 2523 2523 2523 2523 2523 2523 2523 2523 2523 2542 2542 2542 2560 2560 2542 2542 2523 2523 2523 2523 2523 2523 2523 2523 2523 2523 2523 2523 2523 2523 2523 2523 2523 2523 2523 2523 2523 2523 2523 2523 2523 2523 2523 2523 2523 2523 2523 2523 2542 2542 2523 2542 2523 2523 2523 2523 2523 2523 2523 2523 2523 2523 2523 2523 2523 2523 2523 2523 2523 2523 2523 2505 2505 2505 2505 2505 2505 2505 2505 2505 2505 2505 2505 2505 2505 2505 2505 2505 2505 2505 2505 2505 2505 2505 2505 2505 2505 2505 2505 2505 2505 2505 2505 2505 2505 2505 2505 2523 2505 2505 2505 2505 2505 2505 2505 2505 2505 2505 2523 2523 2523 2523 2523 2505 2523 2523 2505 2505 2505 2505 2505 2505 2505 2505 2505 2505 2505 2505 2523 2523 2523 2523 2523 2523 2487 1986 1986 1986 1986 1975 1975 1975 1975 1964 1952 1952 1941 1941 1941 1931 1920 1920 1920 1920 1920 1920 1920 1920 1920 1920 1920 1920 1920 1920 1920 1920 1920 1920 1920 1920 1920 1909 1909 1909 1909 1909 1909 1909 1909 1909 1909 1920 1920 1920 1920 1920 1920 1920 1931 1920 1931 1920 1920 1920 1920 1920 1931 1931 1931 1941 1941 1964 1964 1964 1964 1975 1975 1975 1986 1986 1986 1998 2009 2009 2505 2505 2505 2505 2505 2505 2523 2523 2523 2523 2523 2523 2523 2523 2523 2523 2523 2523 2523 2523 2523 2523 2523 2523 2487 2505 2505 2505 2505 2505 2505 2505 2505 2505 2505 2505 2523 2523 2523 2523 2523 2523 2505 2505 2505 2505 2505 2505 2505 2523 2523 2523 2523 2523 2523 2523 2523 2523 2523 2523 2523 2523 2523 2523 2523 2523 2523 2523 2523 2523 2523 2523 2523 2523 2505 2505 2505 2523 2523 2523 2523 2523 2523 2523 2523 2523 2523 2523 2523 2523 2523 2523 2523 2523 2542 2542 2542 2523 2523 2542 2542 2542 2523 2523 2523 2542 2542 2523 2523 2523 2523 2523 2505 2505 2505 2505 2505 2505 2505 2505 2505 2505 2505 2505 2505 2505 2505 2505 2505 2505 2487 2505 2505 2505 2505 2505 2505 2505 2505 2505 2505 2505 2505 2505 2505 2505 2505 2505 2505 2505 2505 2505 2505 2505 2505 2487 2505 2505 2505 2505 2505 2505 2523 2505 2505 2505 2505 2505 2523 2523 2523 2523 2523 2505 2505 2523 2523 2523 2523 2523 2523 2523 2542 2523 2523 2523 2523 2523 2523 2523 2523 2523 2523 2523 2523 2523 2523 2523 2523 2523 2505 2505 2505 2505 2505 2505 2523 2505 2505 2505 2505 2505 2505 2505 2505 2523 2505 2505 2523 2505 2505 2505 2505 2505 2487 2505 2505 2505 2505 2487 2469 2487 2469 2487 2487 2487 2469 2487 2469 2451 2451 2451 2451 2451 2451 2469 2451 2451 2451 2434 2434 2434 2434 2434 2434 2434
    0 0 0 0 0 0 0 0 0 0 0 0 0 0 0 0 0 0 0 0 0 0 0 0 0 0 0 0 0 0 0 0 0 0 0 0 0 0 0 0 0 0 0 0 0 0 0 0 0 0 0 0 0 0 0 0 0 0 0 0 0 0 0 0 0 0 0 0 0 0 0 0 0 0 0 0 0 0 0 0 0 0 0 0 0 0 0 0 0 0 0 0 0 0 0 0 0 0 0 0 0 0 0 0 0 0 0 0 0 0 0 0 0 0 0 0 0 0 0 0 0 0 0 0 0 0 0 0 0 0 2505 2523 2523 2523 2542 2560 2560 2580 2580 2580 2560 2560 2560 2523 2523 2523 2542 2523 2542 2560 2523 2542 2542 2523 2542 2523 2523 2523 2523 2523 2523 2523 2523 2523 2523 2523 2542 2542 2542 2542 2542 2560 2560 2560 2542 2542 2542 2523 2523 2523 2523 2523 2523 2542 2523 2523 2523 2523 2523 2523 2523 2523 2523 2523 2523 2523 2523 2523 2523 2542 2542 2542 2542 2542 2523 2523 2523 2523 2542 2560 2523 2542 2542 2542 2542 2542 2542 2542 2542 2523 2542 2523 2523 2523 2523 2523 2523 2523 2523 2523 2523 2505 2505 2505 2505 2505 2505 2505 2505 2505 2505 2505 2505 2505 2505 2505 2505 2505 2505 2505 2505 2505 2505 2505 2505 2505 2505 2505 2505 2505 2505 2505 2505 2505 2505 2505 2505 2505 2505 2505 2505 2505 2505 2505 2505 2505 2505 2505 2523 2523 2523 2523 2523 2523 2523 2523 2523 2505 2505 2505 2523 2505 2505 2505 2505 2505 2523 2523 2523 2523 2542 2542 2542 1986 1986 1986 1986 1986 1975 1975 1975 1975 1964 1952 1952 1941 1941 1941 1941 1931 1920 1920 1920 1920 1920 1909 1909 1920 1920 1909 1920 1920 1909 1920 1920 1909 1920 1920 1920 1909 1909 1909 1899 1909 1909 1899 1899 1899 1909 1899 1899 1909 1909 1920 1920 1920 1920 1920 1920 1920 1920 1920 1920 1920 1920 1920 1931 1931 1931 1931 1941 1952 1952 1964 1964 1964 1975 1975 1986 1986 1986 1998 2009 2009 2009 2009 2009 2505 2505 2505 2523 2523 2542 2542 2542 2542 2523 2542 2523 2542 2523 2542 2523 2523 2542 2523 2523 2523 2505 2505 2505 2505 2505 2505 2505 2505 2505 2505 2505 2523 2523 2523 2523 2523 2523 2523 2523 2505 2523 2523 2523 2523 2523 2523 2523 2523 2523 2523 2523 2523 2523 2523 2523 2523 2523 2523 2523 2523 2523 2523 2523 2523 2523 2523 2523 2523 2523 2523 2505 2505 2523 2523 2523 2523 2523 2523 2523 2523 2523 2523 2523 2523 2523 2523 2523 2523 2523 2523 2542 2542 2542 2542 2523 2542 2542 2542 2542 2542 2542 2542 2542 2523 2523 2523 2523 2523 2505 2505 2505 2505 2505 2523 2523 2523 2523 2505 2523 2523 2505 2505 2505 2505 2505 2505 2505 2505 2505 2505 2505 2505 2505 2505 2505 2505 2505 2523 2523 2505 2505 2505 2505 2523 2523 2505 2505 2505 2505 2505 2505 2505 2505 2505 2505 2523 2523 2523 2523 2523 2523 2505 2505 2505 2523 2523 2523 2523 2523 2523 2505 2523 2523 2523 2523 2523 2523 2542 2542 2523 2523 2523 2523 2523 2523 2523 2523 2523 2523 2523 2523 2523 2523 2523 2523 2523 2505 2505 2505 2523 2523 2523 2523 2523 2523 2523 2505 2505 2505 2505 2505 2523 2523 2523 2523 2523 2523 2542 2523 2523 2523 2523 2523 2523 2487 2469 2487 2487 2487 2487 2487 2487 2487 2487 2487 2469 2469 2469 2469 2469 2469 2469 2469 2469 2469 2451 2451 2451 2434 2434 2434 2434
    0 0 0 0 0 0 0 0 0 0 0 0 0 0 0 0 0 0 0 0 0 0 0 0 0 0 0 0 0 0 0 0 0 0 0 0 0 0 0 0 0 0 0 0 0 0 0 0 0 0 0 0 0 0 0 0 0 0 0 0 0 0 0 0 0 0 0 0 0 0 0 0 0 0 0 0 0 0 0 0 0 0 0 0 0 0 0 0 0 0 0 0 0 0 0 0 0 0 0 0 0 0 0 0 0 0 0 0 0 0 0 0 0 0 0 0 0 0 0 0 0 0 0 0 0 0 0 0 0 0 2505 2523 2542 2542 2542 2542 2580 2580 2580 2580 2580 2560 2560 2560 2542 2542 2542 2542 2542 2560 2542 2542 2523 2523 2523 2542 2523 2523 2523 2523 2523 2523 2523 2523 2542 2542 2542 2542 2542 2542 2542 2560 2560 2560 2560 2542 2542 2542 2523 2542 2542 2542 2542 2542 2542 2542 2542 2523 2523 2523 2523 2523 2523 2523 2523 2523 2523 2542 2542 2542 2542 2542 2542 2542 2542 2542 2542 2542 2542 2580 2542 2542 2542 2542 2542 2560 2560 2542 2542 2542 2542 2523 2523 2523 2523 2523 2523 2523 2523 2523 2542 2523 2523 2505 2523 2505 2505 2505 2505 2505 2505 2505 2505 2505 2505 2505 2505 2505 2505 2505 2505 2505 2505 2505 2505 2505 2505 2505 2505 2505 2505 2505 2523 2505 2505 2505 2505 2523 2523 2523 2505 2505 2505 2523 2505 2523 2505 2523 2523 2542 2523 2523 2523 2523 2523 2523 2523 2523 2523 2523 2523 2505 2505 2505 2505 2505 2523 2523 2523 2542 2542 2560 1975 1975 1975 1975 1975 1975 1975 1964 1964 1964 1952 1952 1941 1941 1931 1931 1931 1920 1920 1920 1909 1920 1920 1909 1909 1920 1909 1909 1920 1920 1909 1909 1909 1909 1909 1920 1909 1909 1909 1909 1899 1899 1899 1899 1899 1888 1899 1899 1899 1899 1909 1909 1909 1909 1920 1920 1920 1920 1920 1920 1920 1920 1920 1920 1920 1931 1931 1931 1931 1941 1952 1952 1952 1964 1975 1975 1986 1986 1986 1998 1998 2009 2009 2009 2009 2009 2009 2523 2523 2542 2542 2542 2542 2542 2542 2542 2542 2542 2542 2542 2542 2542 2542 2523 2523 2523 2505 2505 2505 2505 2505 2505 2505 2505 2523 2505 2523 2523 2523 2523 2523 2523 2523 2523 2523 2523 2523 2523 2523 2523 2523 2523 2523 2523 2523 2523 2523 2523 2542 2523 2523 2523 2542 2542 2523 2523 2523 2523 2523 2523 2523 2523 2523 2523 2523 2523 2523 2523 2523 2523 2523 2542 2542 2523 2523 2523 2523 2523 2523 2523 2523 2523 2523 2523 2523 2523 2542 2542 2542 2542 2542 2542 2542 2542 2542 2542 2542 2542 2542 2542 2523 2523 2523 2523 2505 2523 2523 2523 2523 2523 2523 2523 2523 2523 2505 2523 2523 2505 2505 2523 2505 2523 2505 2505 2505 2505 2505 2505 2505 2505 2505 2523 2523 2523 2523 2523 2523 2523 2523 2523 2523 2523 2523 2523 2523 2523 2523 2523 2523 2523 2523 2523 2523 2523 2523 2523 2505 2505 2523 2523 2523 2523 2523 2523 2523 2523 2505 2523 2523 2523 2542 2542 2542 2542 2542 2542 2542 2523 2523 2523 2523 2523 2523 2523 2523 2523 2542 2542 2542 2542 2542 2542 2523 2523 2523 2542 2542 2542 2542 2523 2523 2523 2505 2505 2523 2523 2523 2542 2523 2523 2523 2542 2523 2542 2542 2542 2542 2542 2542 2542 2523 2505 2505 2505 2487 2505 2487 2487 2487 2505 2487 2469 2487 2469 2487 2487 2487 2487 2487 2487 2487 2487 2469 2451 2451 2434 2434 2451
    0 0 0 0 0 0 0 0 0 0 0 0 0 0 0 0 0 0 0 0 0 0 0 0 0 0 0 0 0 0 0 0 0 0 0 0 0 0 0 0 0 0 0 0 0 0 0 0 0 0 0 0 0 0 0 0 0 0 0 0 0 0 0 0 0 0 0 0 0 0 0 0 0 0 0 0 0 0 0 0 0 0 0 0 0 0 0 0 0 0 0 0 0 0 0 0 0 0 0 0 0 0 0 0 0 0 0 0 0 0 0 0 0 0 0 0 0 0 0 0 0 0 0 0 0 0 0 0 0 0 2523 2542 2542 2542 2542 2580 2580 2599 2580 2580 2580 2580 2580 2560 2560 2560 2542 2560 2560 2560 2542 2542 2523 2523 2523 2523 2523 2523 2523 2523 2523 2523 2523 2523 2542 2542 2542 2542 2560 2560 2560 2560 2560 2560 2560 2542 2542 2542 2542 2542 2542 2542 2542 2560 2542 2542 2542 2542 2523 2523 2523 2542 2542 2523 2523 2523 2542 2542 2542 2542 2542 2542 2542 2542 2542 2542 2542 2542 2560 2580 2560 2542 2560 2580 2542 2560 2560 2560 2560 2542 2542 2542 2542 2542 2542 2542 2542 2542 2542 2542 2542 2523 2523 2523 2523 2523 2505 2505 2505 2505 2505 2505 2505 2505 2505 2523 2505 2505 2505 2505 2505 2505 2505 2505 2523 2523 2523 2523 2523 2505 2523 2505 2523 2523 2505 2523 2523 2542 2542 2542 2523 2523 2523 2523 2523 2523 2523 2523 2542 2542 2542 2542 2523 2523 2523 2523 2523 2523 2523 2523 2523 2505 2505 2523 2523 2523 2523 2523 2542 2542 2560 1975 1975 1975 1975 1975 1975 1964 1964 1964 1952 1952 1952 1941 1941 1941 1941 1931 1931 1920 1909 1909 1909 1909 1909 1909 1909 1909 1909 1909 1909 1909 1909 1909 1909 1909 1909 1909 1909 1909 1909 1899 1899 1899 1899 1888 1888 1888 1888 1888 1899 1899 1899 1909 1909 1909 1920 1920 1920 1909 1909 1909 1909 1920 1920 1920 1920 1920 1920 1931 1931 1931 1941 1941 1952 1952 1964 1975 1975 1975 1986 1986 1998 1998 1998 1998 2009 2009 2009 2009 2542 2542 2560 2560 2560 2560 2560 2542 2542 2542 2542 2542 2542 2542 2542 2542 2542 2542 2505 2523 2523 2523 2523 2523 2523 2523 2523 2523 2523 2523 2523 2523 2542 2523 2523 2523 2523 2523 2523 2523 2523 2523 2523 2523 2523 2542 2523 2523 2523 2542 2542 2542 2542 2542 2542 2542 2542 2542 2542 2542 2542 2542 2542 2523 2523 2523 2523 2523 2523 2523 2523 2523 2523 2542 2542 2523 2523 2542 2542 2523 2523 2523 2523 2523 2542 2542 2542 2542 2542 2542 2542 2542 2542 2542 2542 2542 2542 2542 2542 2523 2542 2523 2523 2523 2523 2523 2523 2523 2523 2523 2523 2523 2542 2542 2505 2505 2505 2505 2523 2505 2505 2523 2523 2523 2505 2505 2505 2505 2505 2505 2505 2505 2523 2523 2523 2542 2523 2523 2523 2523 2523 2523 2523 2523 2523 2523 2523 2523 2523 2542 2523 2542 2542 2505 2523 2523 2523 2523 2523 2523 2523 2523 2523 2523 2523 2523 2523 2523 2523 2523 2523 2542 2542 2542 2542 2542 2542 2542 2542 2523 2523 2523 2523 2523 2523 2523 2523 2542 2542 2542 2542 2542 2542 2542 2542 2542 2542 2542 2542 2542 2542 2523 2523 2523 2505 2505 2523 2523 2523 2542 2542 2542 2542 2542 2542 2542 2542 2542 2542 2542 2542 2542 2542 2505 2505 2505 2505 2505 2505 2505 2505 2505 2505 2487 2487 2487 2487 2487 2487 2487 2487 2505 2487 2487 2487 2469 2451 2434 2434 2451
    0 0 0 0 0 0 0 0 0 0 0 0 0 0 0 0 0 0 0 0 0 0 0 0 0 0 0 0 0 0 0 0 0 0 0 0 0 0 0 0 0 0 0 0 0 0 0 0 0 0 0 0 0 0 0 0 0 0 0 0 0 0 0 0 0 0 0 0 0 0 0 0 0 0 0 0 0 0 0 0 0 0 0 0 0 0 0 0 0 0 0 0 0 0 0 0 0 0 0 0 0 0 0 0 0 0 0 0 0 0 0 0 0 0 0 0 0 0 0 0 0 0 0 0 0 0 0 0 0 0 2523 2542 2542 2542 2542 2580 2599 2599 2599 2599 2599 2599 2580 2560 2560 2560 2560 2560 2560 2560 2580 2560 2560 2542 2523 2542 2523 2523 2542 2523 2523 2542 2560 2542 2542 2560 2542 2542 2560 2560 2560 2560 2560 2560 2560 2560 2560 2560 2542 2560 2560 2560 2560 2560 2560 2560 2560 2542 2542 2542 2542 2542 2542 2542 2542 2542 2542 2542 2542 2560 2542 2542 2542 2560 2542 2560 2560 2560 2580 2580 2580 2580 2580 2580 2560 2560 2560 2560 2560 2560 2560 2542 2560 2542 2560 2542 2542 2560 2560 2560 2542 2542 2523 2523 2523 2523 2523 2523 2505 2505 2523 2505 2505 2505 2505 2523 2505 2505 2523 2523 2523 2523 2523 2523 2542 2542 2542 2542 2523 2523 2523 2523 2523 2523 2523 2523 2523 2542 2542 2560 2542 2542 2542 2542 2542 2542 2542 2542 2542 2542 2542 2542 2523 2523 2523 2523 2523 2523 2523 2523 2523 2523 2523 2523 2542 2523 2542 2542 2542 2560 1975 1975 1975 1975 1975 1975 1964 1964 1952 1952 1952 1941 1941 1941 1941 1931 1931 1931 1931 1920 1909 1909 1899 1909 1909 1899 1899 1909 1909 1899 1909 1909 1899 1909 1909 1899 1909 1909 1909 1909 1909 1899 1899 1899 1899 1888 1888 1888 1888 1888 1888 1899 1888 1899 1899 1899 1909 1909 1909 1899 1909 1909 1909 1920 1920 1920 1920 1920 1920 1931 1931 1931 1941 1941 1941 1952 1964 1964 1975 1975 1975 1986 1986 1998 1998 1998 1986 2009 2021 2009 2009 2542 2542 2560 2560 2560 2560 2560 2542 2542 2542 2542 2560 2542 2542 2542 2542 2542 2523 2523 2523 2523 2523 2523 2523 2523 2523 2523 2523 2523 2523 2523 2542 2542 2523 2523 2523 2523 2523 2523 2523 2523 2523 2523 2523 2542 2523 2523 2523 2542 2542 2542 2542 2542 2542 2542 2542 2542 2542 2542 2542 2542 2542 2523 2523 2523 2523 2523 2523 2523 2523 2523 2542 2542 2542 2542 2523 2523 2523 2523 2523 2523 2542 2542 2542 2542 2542 2523 2542 2542 2542 2542 2542 2542 2542 2542 2542 2523 2523 2542 2523 2523 2523 2523 2523 2523 2523 2523 2523 2523 2523 2523 2542 2542 2505 2505 2523 2505 2505 2505 2505 2505 2523 2523 2505 2505 2505 2523 2523 2505 2523 2523 2523 2542 2542 2560 2542 2542 2523 2523 2523 2523 2523 2523 2542 2542 2542 2542 2542 2542 2523 2560 2523 2523 2542 2523 2523 2523 2523 2523 2523 2523 2523 2523 2523 2523 2523 2542 2523 2542 2542 2542 2560 2560 2560 2542 2542 2542 2523 2523 2523 2523 2523 2523 2542 2542 2542 2542 2560 2560 2560 2560 2542 2560 2542 2560 2560 2560 2542 2542 2542 2542 2523 2523 2505 2523 2542 2542 2542 2542 2542 2542 2542 2542 2542 2542 2542 2542 2542 2542 2560 2542 2542 2523 2542 2542 2505 2542 2542 2505 2505 2560 2523 2523 2523 2505 2505 2505 2505 2505 2505 2505 2487 2487 2487 2487 2469 2451 2451 2451
    0 0 0 0 0 0 0 0 0 0 0 0 0 0 0 0 0 0 0 0 0 0 0 0 0 0 0 0 0 0 0 0 0 0 0 0 0 0 0 0 0 0 0 0 0 0 0 0 0 0 0 0 0 0 0 0 0 0 0 0 0 0 0 0 0 0 0 0 0 0 0 0 0 0 0 0 0 0 0 0 0 0 0 0 0 0 0 0 0 0 0 0 0 0 0 0 0 0 0 0 0 0 0 0 0 0 0 0 0 0 0 0 0 0 0 0 0 0 0 0 0 0 0 0 0 0 0 0 0 0 2523 2542 2542 2542 2580 2580 2599 2599 2599 2599 2599 2599 2599 2580 2580 2580 2580 2580 2580 2580 2580 2560 2560 2560 2560 2560 2542 2542 2542 2542 2542 2542 2560 2560 2560 2560 2560 2560 2560 2560 2560 2560 2580 2580 2580 2580 2580 2580 2560 2580 2560 2560 2560 2560 2560 2560 2560 2560 2560 2542 2560 2560 2560 2560 2542 2542 2560 2560 2560 2560 2542 2542 2560 2560 2560 2560 2580 2580 2580 2580 2580 2580 2580 2580 2560 2560 2560 2560 2560 2560 2560 2560 2560 2560 2560 2560 2542 2560 2560 2560 2560 2542 2523 2523 2523 2523 2523 2523 2523 2523 2523 2523 2523 2523 2523 2523 2523 2523 2523 2523 2523 2523 2542 2542 2542 2542 2542 2542 2542 2523 2523 2523 2523 2523 2523 2523 2542 2560 2560 2560 2560 2542 2560 2560 2542 2560 2542 2542 2542 2542 2542 2542 2542 2542 2542 2523 2523 2523 2523 2523 2523 2523 2523 2542 2542 2542 2560 2560 1986 1986 1986 1975 1975 1975 1975 1964 1964 1952 1941 1941 1941 1941 1941 1941 1931 1931 1931 1920 1920 1909 1899 1899 1899 1899 1899 1899 1899 1909 1899 1899 1899 1899 1899 1899 1899 1899 1899 1899 1899 1899 1899 1899 1888 1888 1888 1888 1888 1888 1888 1888 1888 1888 1888 1888 1888 1888 1899 1899 1899 1899 1899 1899 1909 1920 1920 1920 1920 1920 1920 1920 1920 1920 1931 1931 1931 1941 1952 1952 1964 1964 1975 1975 1986 1986 1986 1986 1986 2009 2009 2009 2021 2021 2033 2033 2057 2560 2560 2560 2560 2560 2560 2560 2560 2560 2560 2560 2560 2542 2523 2523 2523 2523 2523 2523 2523 2523 2523 2523 2542 2523 2542 2542 2542 2542 2542 2542 2542 2542 2523 2523 2523 2523 2523 2542 2523 2542 2542 2542 2542 2542 2542 2542 2542 2542 2542 2542 2542 2542 2542 2542 2542 2542 2542 2542 2542 2542 2542 2542 2542 2523 2542 2523 2542 2542 2542 2542 2523 2542 2542 2523 2542 2542 2542 2542 2542 2542 2542 2542 2542 2542 2542 2542 2542 2542 2542 2542 2542 2542 2542 2542 2523 2523 2523 2542 2542 2542 2523 2523 2523 2523 2523 2542 2523 2523 2523 2523 2523 2523 2523 2505 2505 2523 2523 2523 2523 2523 2523 2523 2523 2523 2542 2542 2542 2542 2542 2560 2542 2542 2523 2523 2523 2523 2542 2523 2542 2542 2542 2560 2560 2560 2560 2560 2560 2560 2560 2542 2542 2523 2523 2523 2523 2505 2523 2523 2523 2542 2542 2542 2542 2560 2560 2560 2560 2560 2560 2542 2542 2523 2523 2523 2523 2523 2523 2523 2542 2542 2542 2560 2560 2560 2560 2560 2560 2560 2560 2560 2560 2560 2560 2560 2542 2542 2542 2523 2523 2523 2542 2542 2542 2542 2542 2542 2542 2542 2542 2542 2542 2542 2542 2560 2560 2560 2560 2542 2560 2505 2505 2523 2560 2523 2523 2560 2523 2523 2542 2523 2523 2523 2523 2505 2505 2505 2505 2505 2487 2487 2487 2469 2469 2469
    0 0 0 0 0 0 0 0 0 0 0 0 0 0 0 0 0 0 0 0 0 0 0 0 0 0 0 0 0 0 0 0 0 0 0 0 0 0 0 0 0 0 0 0 0 0 0 0 0 0 0 0 0 0 0 0 0 0 0 0 0 0 0 0 0 0 0 0 0 0 0 0 0 0 0 0 0 0 0 0 0 0 0 0 0 0 0 0 0 0 0 0 0 0 0 0 0 0 0 0 0 0 0 0 0 0 0 0 0 0 0 0 0 0 0 0 0 0 0 0 0 0 0 0 0 0 0 0 0 0 2523 2542 2542 2542 2580 2599 2599 2599 2599 2599 2599 2599 2599 2580 2580 2580 2580 2580 2580 2580 2580 2580 2580 2580 2560 2560 2560 2560 2542 2560 2542 2542 2560 2560 2580 2580 2580 2560 2580 2580 2580 2580 2580 2580 2580 2580 2580 2580 2580 2580 2580 2580 2580 2580 2560 2560 2560 2560 2560 2560 2560 2560 2560 2560 2560 2560 2560 2560 2560 2560 2560 2560 2560 2560 2580 2580 2580 2580 2580 2580 2580 2580 2580 2580 2580 2580 2560 2560 2560 2560 2560 2560 2560 2560 2580 2560 2560 2580 2560 2560 2560 2542 2523 2523 2542 2523 2523 2523 2523 2523 2542 2542 2542 2542 2542 2542 2523 2523 2523 2523 2523 2542 2542 2542 2560 2560 2560 2560 2542 2542 2542 2542 2523 2542 2542 2542 2542 2560 2560 2560 2560 2560 2560 2560 2542 2560 2542 2542 2542 2542 2542 2542 2542 2542 2542 2542 2542 2542 2542 2542 2542 2542 2542 2542 2560 2560 2560 2560 1986 1986 1986 1975 1975 1975 1964 1952 1952 1941 1941 1941 1941 1941 1941 1941 1931 1931 1931 1920 1920 1909 1899 1899 1899 1899 1899 1888 1888 1899 1899 1899 1899 1899 1899 1899 1899 1899 1899 1899 1899 1899 1899 1899 1888 1888 1888 1888 1888 1888 1878 1888 1888 1888 1888 1888 1888 1888 1888 1888 1899 1899 1899 1899 1899 1909 1909 1920 1920 1920 1920 1920 1920 1920 1920 1931 1931 1931 1941 1941 1952 1952 1964 1975 1975 1986 1986 1986 1986 1998 2009 2009 2009 2021 2021 2033 2560 2560 2560 2560 2560 2560 2560 2560 2560 2560 2560 2560 2560 2542 2542 2542 2523 2542 2523 2523 2523 2523 2523 2523 2542 2542 2542 2542 2542 2542 2542 2542 2542 2542 2542 2542 2523 2542 2542 2542 2542 2542 2542 2542 2542 2542 2542 2542 2542 2542 2542 2560 2560 2542 2542 2542 2542 2542 2542 2542 2542 2542 2542 2542 2542 2542 2542 2542 2542 2542 2542 2523 2523 2542 2542 2542 2542 2542 2542 2542 2542 2542 2542 2542 2542 2542 2542 2542 2542 2542 2542 2542 2542 2523 2542 2542 2542 2523 2523 2542 2542 2542 2505 2523 2542 2523 2523 2542 2523 2523 2523 2523 2523 2523 2523 2523 2523 2523 2523 2523 2523 2542 2542 2542 2542 2542 2560 2542 2560 2560 2542 2560 2560 2542 2542 2542 2542 2542 2523 2542 2560 2560 2560 2560 2560 2560 2580 2580 2560 2560 2560 2542 2542 2523 2523 2523 2523 2523 2523 2523 2542 2542 2542 2560 2560 2560 2560 2560 2560 2560 2560 2542 2542 2523 2523 2523 2523 2523 2523 2523 2542 2560 2560 2560 2560 2560 2560 2560 2560 2560 2560 2560 2560 2560 2560 2560 2542 2542 2542 2542 2542 2542 2542 2542 2560 2560 2560 2542 2542 2560 2542 2560 2542 2542 2560 2560 2560 2560 2560 2560 2560 2560 2523 2560 2560 2523 2542 2560 2560 2560 2560 2542 2542 2523 2523 2523 2505 2505 2505 2505 2505 2505 2505 2487 2487 2487
    0 0 0 0 0 0 0 0 0 0 0 0 0 0 0 0 0 0 0 0 0 0 0 0 0 0 0 0 0 0 0 0 0 0 0 0 0 0 0 0 0 0 0 0 0 0 0 0 0 0 0 0 0 0 0 0 0 0 0 0 0 0 0 0 0 0 0 0 0 0 0 0 0 0 0 0 0 0 0 0 0 0 0 0 0 0 0 0 0 0 0 0 0 0 0 0 0 0 0 0 0 0 0 0 0 0 0 0 0 0 0 0 0 0 0 0 0 0 0 0 0 0 0 0 0 0 0 0 0 0 2560 2580 2599 2599 2599 2599 2599 2599 2599 2599 2599 2599 2599 2580 2580 2580 2580 2580 2580 2580 2580 2580 2580 2580 2580 2580 2580 2580 2560 2580 2580 2580 2580 2580 2580 2580 2580 2580 2580 2580 2580 2580 2580 2580 2580 2580 2580 2580 2580 2580 2580 2580 2580 2580 2580 2580 2580 2580 2580 2560 2560 2560 2580 2580 2560 2560 2560 2560 2560 2580 2560 2560 2560 2580 2580 2580 2580 2580 2580 2580 2580 2580 2580 2580 2560 2580 2560 2580 2560 2560 2560 2560 2580 2580 2580 2580 2560 2580 2580 2580 2560 2542 2542 2542 2542 2542 2542 2542 2542 2542 2542 2542 2542 2542 2542 2542 2542 2523 2523 2542 2542 2542 2560 2542 2560 2560 2560 2560 2560 2542 2542 2542 2542 2542 2542 2542 2560 2560 2560 2560 2560 2560 2560 2560 2560 2560 2560 2560 2560 2542 2542 2542 2542 2542 2542 2542 2542 2542 2542 2542 2542 2542 2560 2560 2560 2580 1986 1986 1986 1986 1986 1975 1975 1975 1964 1952 1941 1941 1941 1941 1931 1931 1931 1931 1931 1920 1920 1920 1920 1909 1899 1899 1899 1899 1899 1888 1888 1899 1899 1888 1899 1899 1899 1899 1899 1899 1899 1899 1888 1899 1899 1888 1888 1888 1888 1888 1888 1888 1888 1888 1888 1888 1888 1888 1888 1888 1888 1888 1888 1899 1899 1899 1899 1909 1909 1920 1920 1920 1920 1920 1920 1920 1920 1920 1920 1931 1931 1941 1941 1952 1964 1964 1975 1975 1975 1975 1975 1986 1998 1998 2009 2009 2009 2021 2021 2560 2560 2560 2560 2560 2560 2560 2560 2560 2560 2560 2560 2542 2542 2542 2542 2542 2542 2542 2542 2542 2542 2542 2542 2542 2542 2542 2560 2560 2542 2542 2542 2542 2542 2542 2542 2542 2542 2542 2542 2560 2542 2542 2542 2560 2560 2542 2542 2542 2542 2560 2560 2560 2560 2560 2560 2560 2560 2542 2542 2542 2542 2542 2542 2542 2542 2542 2542 2542 2542 2542 2542 2542 2542 2542 2542 2542 2542 2542 2560 2542 2542 2542 2542 2542 2542 2542 2542 2542 2560 2542 2542 2542 2542 2542 2542 2523 2523 2542 2542 2542 2523 2523 2523 2523 2523 2523 2523 2542 2542 2523 2523 2523 2523 2523 2523 2523 2523 2523 2523 2542 2542 2542 2542 2542 2560 2542 2560 2560 2560 2560 2560 2560 2542 2560 2560 2560 2560 2560 2560 2560 2560 2560 2560 2580 2580 2580 2580 2580 2560 2560 2560 2542 2523 2542 2542 2523 2542 2542 2542 2560 2560 2560 2560 2580 2580 2580 2580 2580 2580 2560 2560 2542 2542 2523 2523 2523 2523 2542 2560 2560 2560 2560 2560 2560 2560 2560 2580 2580 2560 2560 2560 2580 2560 2560 2560 2560 2542 2542 2542 2542 2560 2560 2560 2560 2560 2560 2542 2560 2560 2560 2542 2542 2560 2560 2560 2560 2560 2560 2560 2560 2560 2560 2560 2560 2560 2560 2560 2560 2560 2542 2542 2542 2542 2523 2505 2523 2505 2505 2505 2505 2505 2487 2487 2487
    0 0 0 0 0 0 0 0 0 0 0 0 0 0 0 0 0 0 0 0 0 0 0 0 0 0 0 0 0 0 0 0 0 0 0 0 0 0 0 0 0 0 0 0 0 0 0 0 0 0 0 0 0 0 0 0 0 0 0 0 0 0 0 0 0 0 0 0 0 0 0 0 0 0 0 0 0 0 0 0 0 0 0 0 0 0 0 0 0 0 0 0 0 0 0 0 0 0 0 0 0 0 0 0 0 0 0 0 0 0 0 0 0 0 0 0 0 0 0 0 0 0 0 0 0 0 0 0 0 0 2580 2599 2599 2599 2599 2599 2599 2599 2599 2599 2599 2619 2599 2580 2580 2580 2580 2580 2580 2580 2580 2580 2580 2580 2580 2580 2580 2580 2580 2580 2580 2580 2580 2580 2580 2580 2580 2580 2580 2580 2580 2580 2580 2580 2580 2580 2599 2599 2599 2599 2599 2580 2580 2580 2580 2580 2580 2580 2580 2580 2580 2580 2580 2580 2580 2580 2580 2580 2580 2580 2560 2560 2580 2580 2580 2580 2580 2580 2580 2599 2599 2580 2580 2580 2560 2560 2560 2580 2580 2560 2580 2580 2580 2580 2580 2580 2580 2580 2580 2580 2560 2560 2542 2542 2542 2542 2560 2560 2560 2560 2560 2560 2560 2560 2542 2542 2542 2542 2542 2542 2542 2542 2560 2560 2560 2560 2560 2560 2560 2560 2542 2542 2542 2560 2560 2560 2560 2560 2560 2560 2580 2560 2560 2560 2560 2560 2560 2560 2560 2542 2542 2542 2542 2542 2542 2542 2542 2542 2560 2560 2560 2560 2560 2560 2560 2580 1986 1986 1986 1986 1975 1975 1975 1975 1964 1952 1952 1941 1941 1941 1941 1931 1931 1931 1931 1920 1920 1920 1920 1909 1899 1899 1899 1899 1888 1888 1888 1888 1888 1888 1899 1899 1899 1899 1899 1899 1899 1888 1888 1899 1899 1888 1888 1888 1888 1888 1888 1888 1888 1888 1888 1888 1888 1888 1888 1888 1888 1888 1888 1888 1899 1899 1899 1909 1909 1909 1909 1920 1920 1920 1920 1920 1920 1920 1920 1920 1931 1931 1941 1941 1952 1964 1964 1964 1964 1975 1975 1986 1986 1986 1998 1998 2009 2009 2009 2599 2599 2599 2580 2560 2560 2560 2580 2560 2560 2560 2560 2542 2542 2542 2542 2542 2542 2542 2542 2542 2542 2542 2542 2542 2560 2560 2560 2560 2560 2560 2542 2542 2542 2542 2542 2542 2542 2542 2560 2560 2560 2560 2560 2560 2580 2560 2560 2560 2560 2580 2542 2542 2542 2542 2560 2560 2560 2560 2542 2542 2542 2560 2560 2542 2542 2542 2542 2542 2560 2560 2560 2560 2560 2542 2542 2580 2560 2560 2560 2542 2542 2542 2542 2542 2542 2542 2542 2542 2542 2542 2542 2542 2542 2542 2542 2523 2542 2542 2542 2542 2542 2542 2523 2523 2542 2542 2542 2560 2560 2560 2523 2523 2523 2523 2523 2523 2523 2523 2523 2542 2560 2542 2560 2560 2560 2560 2560 2560 2560 2580 2560 2560 2560 2560 2560 2560 2560 2560 2580 2560 2580 2580 2580 2580 2580 2580 2580 2580 2580 2580 2560 2560 2542 2542 2542 2542 2542 2560 2560 2560 2580 2580 2580 2580 2580 2580 2560 2580 2560 2560 2560 2560 2542 2523 2523 2523 2542 2560 2560 2560 2560 2560 2580 2560 2560 2560 2580 2580 2560 2580 2580 2580 2580 2580 2560 2560 2560 2560 2542 2560 2560 2560 2560 2560 2560 2560 2560 2560 2560 2560 2560 2560 2560 2560 2580 2560 2560 2560 2560 2560 2560 2560 2560 2560 2560 2560 2560 2560 2560 2560 2560 2560 2542 2542 2523 2523 2505 2505 2505 2505 2505 2487 2487 2487
    0 0 0 0 0 0 0 0 0 0 0 0 0 0 0 0 0 0 0 0 0 0 0 0 0 0 0 0 0 0 0 0 0 0 0 0 0 0 0 0 0 0 0 0 0 0 0 0 0 0 0 0 0 0 0 0 0 0 0 0 0 0 0 0 0 0 0 0 0 0 0 0 0 0 0 0 0 0 0 0 0 0 0 0 0 0 0 0 0 0 0 0 0 0 0 0 0 0 0 0 0 0 0 0 0 0 0 0 0 0 0 0 0 0 0 0 0 0 0 0 0 0 0 0 0 0 0 0 0 0 2599 2599 2599 2599 2599 2619 2619 2619 2619 2599 2619 2619 2619 2599 2599 2599 2599 2599 2580 2580 2580 2599 2599 2580 2580 2580 2599 2599 2580 2580 2580 2580 2580 2580 2580 2580 2580 2580 2580 2580 2580 2580 2580 2580 2580 2580 2580 2599 2599 2599 2599 2599 2599 2599 2580 2580 2580 2580 2580 2580 2580 2580 2580 2580 2580 2580 2580 2580 2580 2580 2580 2580 2580 2580 2580 2580 2580 2580 2599 2599 2599 2580 2580 2580 2580 2580 2580 2580 2580 2580 2580 2580 2580 2580 2580 2580 2580 2580 2580 2580 2580 2560 2542 2542 2560 2542 2560 2560 2560 2560 2560 2560 2560 2560 2560 2542 2542 2542 2542 2542 2542 2542 2560 2560 2560 2560 2560 2560 2560 2560 2560 2560 2560 2560 2560 2560 2560 2580 2580 2580 2580 2580 2580 2560 2560 2560 2560 2560 2560 2560 2560 2560 2560 2560 2560 2560 2560 2560 2560 2560 2560 2560 2560 2560 2580 1975 1975 1975 1975 1975 1975 1975 1964 1964 1964 1952 1941 1941 1941 1941 1931 1931 1931 1920 1920 1920 1920 1920 1920 1899 1899 1899 1888 1888 1888 1888 1888 1888 1888 1888 1899 1899 1899 1899 1899 1888 1888 1888 1888 1888 1899 1888 1888 1888 1888 1888 1888 1888 1888 1888 1888 1888 1888 1888 1888 1888 1888 1888 1888 1888 1899 1899 1899 1899 1909 1909 1909 1920 1909 1920 1909 1909 1920 1920 1920 1920 1931 1931 1931 1941 1952 1952 1964 1964 1964 1975 1975 1975 1975 1986 1986 2009 2009 2009 2009 0 2009 2560 0 2560 2560 2560 2580 2560 2560 2560 2560 2560 2542 2542 2542 2542 2542 2542 2542 2542 2542 2542 2560 2560 2560 2580 2580 2580 2560 2560 2560 2560 2542 2542 2542 2542 2560 2560 2560 2580 2580 2560 2560 2580 2580 2580 2580 2560 2560 2580 2560 2560 2560 2560 2542 2542 2560 2560 2560 2560 2560 2560 2560 2560 2560 2560 2560 2560 2580 2580 2580 2580 2560 2560 2580 2580 2560 2560 2560 2560 2542 2542 2542 2542 2542 2542 2542 2542 2542 2542 2542 2542 2542 2542 2542 2542 2542 2580 2580 2580 2542 2542 2560 2560 2560 2560 2560 2560 2560 2560 2523 2542 2542 2523 2523 2523 2523 2523 2542 2560 2560 2560 2560 2560 2560 2560 2580 2560 2560 2560 2560 2560 2560 2560 2560 2560 2560 2560 2580 2580 2580 2580 2580 2580 2580 2580 2580 2580 2580 2580 2580 2560 2542 2542 2542 2542 2542 2560 2560 2560 2580 2580 2580 2580 2580 2580 2580 2580 2580 2560 2560 2560 2560 2542 2560 2560 2560 2560 2560 2580 2560 2560 2580 2560 2580 2580 2580 2580 2580 2580 2580 2580 2580 2560 2560 2560 2560 2560 2560 2560 2560 2560 2580 2580 2560 2560 2560 2580 2580 2580 2560 2560 2560 2560 2580 2560 2560 2560 2560 2560 2560 2560 2560 2560 2560 2560 2560 2560 2580 2560 2560 2560 2542 2542 2542 2523 2505 2505 2505 2505 2505 2505 2505 2487
    0 0 0 0 0 0 0 0 0 0 0 0 0 0 0 0 0 0 0 0 0 0 0 0 0 0 0 0 0 0 0 0 0 0 0 0 0 0 0 0 0 0 0 0 0 0 0 0 0 0 0 0 0 0 0 0 0 0 0 0 0 0 0 0 0 0 0 0 0 0 0 0 0 0 0 0 0 0 0 0 0 0 0 0 0 0 0 0 0 0 0 0 0 0 0 0 0 0 0 0 0 0 0 0 0 0 0 0 0 0 0 0 0 0 0 0 0 0 0 0 0 0 0 0 0 0 0 0 0 0 2599 2599 2619 2599 2599 2619 2619 2619 2619 2619 2619 2619 2619 2599 2599 2599 2599 2599 2599 2580 2599 2599 2599 2580 2580 2580 2599 2599 2580 2580 2580 2580 2580 2580 2580 2580 2580 2580 2580 2580 2580 2580 2580 2580 2580 2580 2599 2599 2599 2599 2599 2599 2599 2599 2599 2599 2580 2580 2580 2580 2599 2580 2580 2580 2580 2580 2580 2580 2580 2580 2580 2580 2580 2599 2580 2599 2599 2599 2599 2599 2599 2599 2599 2599 2580 2580 2580 2580 2580 2580 2580 2580 2580 2599 2599 2580 2580 2599 2580 2580 2580 2560 2542 2542 2560 2560 2560 2560 2560 2580 2580 2560 2560 2560 2560 2560 2560 2560 2560 2560 2560 2542 2560 2560 2560 2560 2560 2560 2560 2560 2560 2560 2560 2560 2560 2580 2580 2580 2580 2580 2580 2580 2580 2560 2560 2560 2560 2560 2560 2560 2560 2560 2560 2560 2560 2560 2560 2560 2560 2580 2560 2560 2560 2560 2560 1975 1975 1975 1975 1975 1975 1964 1964 1952 1952 1941 1941 1941 1941 1931 1931 1931 1931 1920 1920 1920 1920 1909 1909 1899 1899 1899 1888 1888 1888 1888 1888 1888 1899 1888 1899 1899 1899 1899 1899 1888 1888 1888 1888 1888 1888 1888 1888 1888 1888 1888 1888 1888 1888 1888 1888 1888 1888 1888 1888 1888 1888 1888 1888 1899 1899 1899 1899 1909 1909 1909 1909 1920 1909 1909 1909 1909 1909 1909 1920 1920 1920 1920 1931 1931 1941 1952 1952 1964 1964 1964 1964 1975 1975 1975 1986 1986 2009 2009 0 2009 0 0 0 2560 2560 2580 2580 2580 2580 2580 2580 2560 2560 2560 2560 2542 2542 2542 2560 2560 2560 2560 2560 2580 2580 2580 2580 2580 2580 2580 2560 2560 2560 2560 2560 2560 2542 2560 2580 2580 2580 2580 2580 2580 2580 2580 2580 2560 2560 2580 2560 2542 2542 2542 2560 2560 2560 2560 2560 2560 2560 2580 2580 2580 2580 2580 2580 2580 2580 2599 2599 2580 2580 2580 2580 2580 2580 2560 2580 2580 2580 2542 2542 2542 2542 2542 2542 2542 2542 2542 2542 2542 2542 2542 2542 2542 2580 2580 2580 2580 2542 2542 2560 2560 2560 2560 2560 2560 2580 2560 2560 2542 2542 2523 2523 2523 2523 2523 2542 2560 2560 2560 2560 2560 2580 2580 2580 2580 2580 2580 2580 2580 2560 2560 2560 2560 2580 2580 2580 2580 2580 2580 2580 2580 2580 2580 2580 2580 2580 2580 2580 2580 2560 2560 2560 2560 2560 2560 2560 2580 2580 2580 2580 2580 2580 2580 2580 2580 2580 2580 2580 2580 2580 2580 2580 2580 2560 2580 2580 2560 2560 2560 2560 2560 2560 2580 2580 2580 2580 2580 2580 2580 2580 2580 2580 2560 2560 2560 2560 2560 2560 2560 2580 2580 2580 2580 2580 2580 2580 2580 2560 2560 2560 2560 2580 2560 2560 2560 2560 2560 2560 2560 2560 2560 2580 2560 2560 2560 2560 2560 2560 2560 2542 2542 2542 2542 2523 2523 2523 2523 2505 2505 2505 2505
    0 0 0 0 0 0 0 0 0 0 0 0 0 0 0 0 0 0 0 0 0 0 0 0 0 0 0 0 0 0 0 0 0 0 0 0 0 0 0 0 0 0 0 0 0 0 0 0 0 0 0 0 0 0 0 0 0 0 0 0 0 0 0 0 0 0 0 0 0 0 0 0 0 0 0 0 0 0 0 0 0 0 0 0 0 0 0 0 0 0 0 0 0 0 0 0 0 0 0 0 0 0 0 0 0 0 0 0 0 0 0 0 0 0 0 0 0 0 0 0 0 0 0 0 0 0 0 0 0 0 2619 2619 2619 2619 2619 2619 2619 2619 2619 2619 2619 2619 2619 2599 2599 2599 2599 2599 2599 2599 2599 2599 2599 2599 2599 2599 2599 2599 2580 2580 2580 2599 2599 2580 2580 2580 2580 2580 2580 2580 2580 2580 2580 2580 2580 2580 2599 2599 2599 2599 2599 2599 2599 2599 2599 2599 2599 2599 2599 2599 2599 2599 2599 2599 2599 2599 2580 2580 2580 2580 2599 2599 2599 2599 2599 2599 2599 2599 2599 2599 2599 2599 2599 2599 2599 2580 2580 2580 2599 2599 2599 2599 2580 2599 2599 2599 2580 2599 2580 2580 2580 2560 2560 2560 2560 2560 2560 2580 2580 2580 2580 2560 2560 2560 2560 2560 2560 2560 2560 2560 2560 2560 2560 2560 2560 2560 2560 2560 2580 2580 2580 2580 2580 2580 2580 2580 2580 2580 2580 2580 2580 2580 2580 2580 2560 2560 2560 2560 2560 2560 2560 2560 2560 2580 2580 2580 2580 2580 2580 2580 2560 2560 2560 1986 1986 1975 1975 1975 1975 1975 1964 1964 1952 1952 1941 1941 1941 1931 1931 1931 1931 1931 1920 1920 1920 1909 1909 1909 1909 1899 1899 1899 1888 1888 1888 1888 1888 1888 1899 1888 1899 1888 1899 1899 1888 1888 1888 1888 1888 1888 1888 1888 1888 1888 1888 1888 1888 1888 1888 1888 1888 1888 1878 1888 1888 1888 1888 1888 1888 1888 1899 1899 1899 1909 1909 1909 1909 1909 1909 1909 1909 1909 1909 1909 1920 1920 1920 1920 1931 1931 1941 1941 1952 1952 1964 1964 1964 1964 1975 1975 1975 1986 1998 1998 2009 0 0 0 0 0 2560 2580 2580 2580 2599 2580 2599 2580 2560 2560 2560 2560 2542 2560 2560 2560 2560 2560 2560 2580 2580 2580 2580 2580 2580 2580 2580 2580 2560 2580 2580 2560 2580 2580 2599 2599 2599 2580 2580 2599 2599 2580 2580 2580 2580 2580 2580 2560 2560 2560 2560 2560 2560 2560 2560 2580 2580 2580 2580 2580 2580 2580 2580 2580 2599 2599 2599 2599 2599 2599 2599 2599 2599 2580 2580 2599 2599 2599 2580 2599 2542 2560 2599 2580 2560 2560 2542 2542 2542 2542 2542 2542 2580 2599 2580 2599 2560 2560 2560 2580 2560 2560 2560 2580 2580 2580 2560 2560 2560 2560 2560 2542 2542 2523 2542 2560 2560 2560 2580 2580 2580 2580 2580 2580 2580 2580 2580 2580 2580 2560 2580 2580 2580 2580 2580 2580 2580 2580 2580 2580 2580 2580 2580 2580 2580 2580 2580 2580 2580 2580 2580 2580 2580 2580 2580 2580 2580 2580 2580 2580 2599 2580 2580 2580 2599 2580 2580 2599 2599 2599 2580 2580 2580 2580 2580 2580 2560 2580 2580 2580 2580 2580 2580 2599 2580 2580 2580 2580 2580 2580 2580 2580 2580 2580 2560 2560 2580 2580 2580 2580 2580 2580 2580 2580 2580 2580 2580 2580 2580 2580 2580 2580 2560 2580 2560 2560 2580 2580 2580 2580 2580 2560 2560 2560 2580 2580 2560 2560 2560 2542 2523 2542 2523 2523 2505 2505 2505 2505 2505 2487
    0 0 0 0 0 0 0 0 0 0 0 0 0 0 0 0 0 0 0 0 0 0 0 0 0 0 0 0 0 0 0 0 0 0 0 0 0 0 0 0 0 0 0 0 0 0 0 0 0 0 0 0 0 0 0 0 0 0 0 0 0 0 0 0 0 0 0 0 0 0 0 0 0 0 0 0 0 0 0 0 0 0 0 0 0 0 0 0 0 0 0 0 0 0 0 0 0 0 0 0 0 0 0 0 0 0 0 0 0 0 0 0 0 0 0 0 0 0 0 0 0 0 0 0 0 0 0 0 0 0 2619 2619 2619 2619 2619 2619 2619 2619 2619 2619 2619 2619 2619 2599 2599 2599 2599 2599 2599 2599 2599 2599 2599 2599 2599 2599 2599 2599 2599 2599 2599 2599 2599 2580 2580 2580 2580 2580 2580 2580 2580 2580 2580 2580 2580 2580 2599 2599 2599 2599 2599 2599 2599 2599 2599 2599 2599 2599 2599 2599 2599 2599 2599 2599 2599 2599 2599 2599 2599 2599 2599 2599 2599 2599 2599 2599 2619 2599 2599 2599 2599 2580 2580 2599 2580 2580 2599 2599 2599 2599 2599 2599 2599 2599 2599 2599 2599 2599 2580 2580 2580 2580 2560 2560 2560 2580 2580 2580 2580 2580 2580 2580 2580 2560 2560 2560 2560 2560 2560 2560 2560 2560 2560 2560 2560 2580 2580 2580 2580 2580 2580 2580 2580 2580 2580 2580 2580 2580 2580 2580 2580 2580 2580 2580 2580 2560 2560 2560 2560 2560 2560 2560 2580 2580 2580 2580 2599 2580 2580 2580 2560 2560 2542 1986 1986 1975 1975 1975 1975 1964 1964 1952 1952 1941 1941 1941 1931 1931 1931 1931 1931 1931 1920 1909 1909 1909 1909 1909 1909 1899 1888 1888 1888 1888 1888 1888 1888 1888 1888 1888 1888 1888 1888 1888 1888 1888 1888 1888 1888 1888 1888 1888 1888 1888 1888 1888 1888 1888 1878 1888 1888 1878 1878 1878 1878 1888 1888 1888 1888 1888 1899 1899 1899 1899 1909 1909 1909 1909 1909 1909 1909 1909 1909 1909 1909 1920 1920 1920 1920 1931 1931 1941 1941 1952 1952 1964 1964 1964 1964 1975 1975 1986 1998 1998 2009 1998 0 0 0 0 0 2599 2580 2580 2599 2599 2599 2580 2580 2560 2580 2560 2560 2580 2560 2560 2560 2560 2560 2580 2580 2580 2580 2599 2599 2599 2599 2580 2580 2580 2599 2580 2599 2599 2599 2599 2599 2599 2599 2599 2599 2599 2599 2580 2580 2580 2580 2560 2542 2560 2560 2560 2580 2580 2580 2580 2580 2599 2599 2580 2580 2599 2599 2580 2599 2599 2599 2599 2599 2599 2599 2599 2599 2599 2599 2599 2599 2599 2599 2599 2580 2580 2580 2580 2580 2560 2560 2542 2542 2542 2542 2542 2580 2599 2599 2599 2580 2580 2580 2580 2580 2580 2580 2580 2580 2580 2580 2560 2580 2580 2580 2560 2542 2523 2560 2580 2580 2580 2580 2580 2580 2580 2580 2580 2580 2580 2580 2580 2580 2580 2580 2580 2580 2580 2580 2580 2580 2580 2580 2580 2580 2580 2580 2580 2580 2580 2580 2580 2580 2580 2580 2580 2580 2599 2580 2580 2580 2580 2599 2599 2599 2599 2599 2599 2599 2599 2599 2599 2619 2599 2599 2580 2580 2580 2580 2580 2580 2580 2580 2580 2580 2599 2599 2599 2580 2599 2599 2599 2580 2580 2580 2580 2580 2580 2580 2580 2580 2580 2580 2580 2580 2580 2580 2599 2599 2599 2580 2580 2580 2580 2580 2580 2560 2580 2580 2580 2580 2580 2580 2580 2560 2560 2560 2560 2560 2560 2560 2560 2560 2542 2542 2542 2523 2523 2523 2505 2505 2523 2505 2505</data></dframe>
</opencv_storage>
