<?xml version="1.0"?>
<opencv_storage>
<dframe type_id="opencv-matrix">
  <rows>34</rows>
  <cols>640</cols>
  <dt>w</dt>
  <data>
    0 0 0 0 0 0 0 0 0 0 0 0 0 0 0 0 0 0 0 0 0 0 0 0 0 0 0 0 0 0 0 0 0 0 0 0 0 0 0 0 0 0 0 0 0 0 0 0 0 0 0 0 0 0 0 0 0 0 0 0 0 0 0 0 0 0 0 0 0 0 0 0 0 0 0 0 0 0 0 0 0 0 0 0 0 0 0 0 0 0 0 0 0 0 0 0 0 0 0 2244 2244 2244 2244 2259 2259 2259 2259 2259 2274 2274 2274 2289 2304 2320 2335 2335 2335 0 0 0 0 3759 3718 3718 3718 3718 3718 3759 3718 3718 3718 3718 3718 3718 3718 3718 3718 3718 3718 3679 3679 3679 3679 3679 3679 3679 3679 3679 3679 3679 3679 3718 3718 3718 3718 3679 3679 3679 3679 3679 3679 3679 3679 3679 3679 3679 3679 3679 3679 3679 3679 3718 3718 3718 3718 3718 3718 3718 3679 3679 3679 3679 3718 3718 3679 3679 3679 3718 3679 3718 3718 3718 3718 3759 3718 3759 3759 3759 3759 3759 3718 3759 3759 3718 3759 3759 3800 3800 3842 3800 3842 3842 3842 3842 3800 3800 3800 3800 3800 3759 3759 3759 3759 3800 3800 3800 3800 3800 3800 3800 3800 3800 3800 3800 3800 3800 3800 3800 3800 3800 3800 3800 3759 3759 3759 3800 3800 3800 3800 3800 3800 3800 3800 3800 3800 3800 3800 3800 3800 3800 3800 3800 3842 3842 3842 3842 3842 3842 3842 3842 3842 3842 3842 3842 3842 3842 3842 3885 3885 3842 3842 3885 3842 3885 3842 3842 3842 3885 3885 3885 3842 3885 3885 3885 3885 3885 3885 3885 3885 3930 3930 3930 3930 3930 3930 3930 3930 3930 3930 3930 3930 3930 3930 3930 3930 3975 3975 3975 3975 3930 3930 3930 3930 3930 3930 3930 3930 3930 3930 3930 3930 3930 3930 3930 3930 3975 3975 3930 3930 3930 3930 3930 3930 3930 3930 3930 3930 3930 3930 3930 3930 3975 3975 3975 3975 3975 3975 3975 3975 3975 3975 3975 3975 3975 3975 3975 3975 3975 3975 3975 3930 3975 3975 3930 3975 3930 3975 3975 3975 3975 3975 3975 3975 3975 3975 3975 3975 3975 3975 3975 3975 3975 3975 3975 3975 3975 3975 3975 4021 3975 3975 3975 3975 3975 3975 3930 3975 3975 3930 3885 3930 3930 3930 3930 3930 3930 3930 3930 3930 3930 3930 3930 3930 3930 3930 3930 3930 3930 3930 3930 3930 3930 3930 3930 3930 3930 3930 3930 3930 3930 3930 3930 3930 3930 3930 3930 3930 3930 3885 3930 3930 3930 3930 3930 3930 3930 3930 3930 3930 3930 3930 3930 3930 3930 3930 3930 3885 3885 3885 3885 3885 3885 3885 3885 3885 3885 3930 3930 3930 3930 3930 3975 3975 3975 3975 3930 3930 3930 3930 3930 3930 3930 3930 3975 3975 3975 3930 3930 3930 3885 3885 3885 3885 3885 3885 3930 3885 3930 3930 3930 3885 3885 3885 3885 3885 3885 3885 3885 3885 3930 3930 3930 3930 3930 3930 3930 3930 3930 3885 3885 3885 3885 3885 3885 3885 3885 3885 3885 3885 3885 3885 3885 3885 3885 3885 3885 3885 3930 3930 3930 3975 3975 3975 3975 3975 3975 3975 3975 3930 3930 3930 3885 3885 3885 3885 3885 3885 3885 3885 3885 3930 3930 3885 3885 3885 3885 3842 3842 3800 3842 3800 3800 3800 3800 3800 3759 3800 3759 3718 3679 3640 3640 3640 3602 3640 3640 3640 3602 3565 3565 3565 3528 3493 3493 3493 3493 3493 3458 3423 3390 3390 3390 3390 3390 3390 3390 3390 3390 3390 3357 3357 3324 3324 3324 3324 3324 3262 3231 3231 3231 3201 3231 3231 3201 3172 3201 3172 3172 3143 3143
    0 0 0 0 0 0 0 0 0 0 0 0 0 0 0 0 0 0 0 0 0 0 0 0 0 0 0 0 0 0 0 0 0 0 0 0 0 0 0 0 0 0 0 0 0 0 0 0 0 0 0 0 0 0 0 0 0 0 0 0 0 0 0 0 0 0 0 0 0 0 0 0 0 0 0 0 0 0 0 0 0 0 0 0 0 0 0 0 0 0 0 0 0 0 0 0 0 0 0 2244 2244 2244 2244 2259 2259 2259 2259 2259 2274 2274 2274 2289 2304 2320 2335 2335 2335 0 0 0 0 3718 3718 3718 3718 3718 3718 3718 3718 3718 3718 3718 3718 3718 3718 3718 3718 3718 3718 3679 3679 3679 3679 3679 3679 3679 3679 3679 3679 3679 3679 3718 3718 3718 3718 3718 3679 3679 3679 3679 3679 3679 3679 3679 3679 3679 3679 3679 3679 3679 3679 3718 3718 3718 3718 3718 3718 3718 3679 3679 3679 3679 3679 3718 3679 3679 3679 3679 3679 3718 3718 3718 3718 3759 3759 3759 3759 3759 3759 3759 3759 3759 3759 3718 3718 3759 3759 3800 3800 3800 3800 3842 3842 3842 3800 3800 3800 3842 3800 3800 3759 3759 3759 3800 3800 3759 3800 3800 3842 3800 3800 3800 3800 3800 3800 3800 3800 3800 3800 3800 3800 3759 3759 3759 3759 3759 3759 3800 3800 3800 3800 3800 3800 3800 3800 3800 3800 3800 3800 3800 3800 3842 3842 3842 3842 3842 3842 3842 3842 3842 3842 3842 3842 3842 3842 3842 3842 3885 3885 3842 3842 3842 3842 3842 3842 3842 3842 3842 3885 3885 3885 3885 3885 3885 3885 3885 3885 3885 3885 3930 3930 3930 3930 3930 3930 3930 3930 3930 3930 3930 3930 3930 3930 3930 3930 3975 3975 3975 3975 3930 3930 3930 3930 3930 3930 3930 3930 3930 3930 3930 3930 3930 3930 3930 3930 3975 3975 3930 3930 3930 3930 3930 3930 3930 3930 3930 3930 3930 3930 3930 3930 3975 3975 3975 3975 3975 3975 3975 3975 3975 3975 3975 3975 3975 3975 3975 3975 3975 3975 3975 3975 3975 3975 3930 3975 3975 3975 3975 3975 3975 3975 3975 3975 3975 3975 3975 3975 3975 3975 3975 3975 3975 3975 3975 3975 3975 3975 3975 3975 3975 3975 3975 3975 3975 3975 3975 3975 3975 3975 3930 3930 3930 3930 3930 3930 3930 3885 3885 3930 3930 3930 3930 3930 3930 3930 3930 3930 3930 3930 3930 3930 3930 3930 3930 3930 3930 3930 3930 3975 3930 3930 3930 3930 3930 3930 3930 3930 3930 3930 3930 3930 3930 3930 3930 3975 3930 3930 3975 3930 3930 3930 3930 3930 3930 3930 3930 3930 3930 3885 3930 3885 3885 3930 3930 3930 3930 3930 3930 3930 3930 3975 3975 3975 3975 3975 3930 3930 3930 3930 3930 3930 3930 3975 3975 3975 3930 3930 3930 3930 3885 3885 3885 3885 3885 3930 3930 3930 3930 3930 3930 3930 3930 3885 3930 3930 3930 3885 3930 3930 3930 3930 3930 3930 3930 3930 3885 3930 3930 3930 3885 3885 3885 3885 3930 3885 3885 3885 3885 3885 3885 3885 3885 3885 3885 3885 3885 3885 3930 3930 3975 3975 3975 3975 3975 4021 3975 4021 3975 3975 3975 3930 3930 3885 3885 3885 3885 3885 3885 3885 3885 3930 3930 3885 3885 3885 3885 3842 3842 3842 3842 3800 3800 3800 3800 3800 3759 3759 3759 3718 3679 3640 3640 3640 3602 3602 3640 3640 3602 3602 3565 3565 3528 3528 3493 3493 3493 3493 3458 3423 3390 3390 3390 3390 3390 3390 3390 3390 3390 3357 3357 3357 3324 3324 3324 3324 3324 3262 3262 3231 3231 3201 3201 3201 3201 3172 3201 3172 3172 3143 3172
    0 0 0 0 0 0 0 0 0 0 0 0 0 0 0 0 0 0 0 0 0 0 0 0 0 0 0 0 0 0 0 0 0 0 0 0 0 0 0 0 0 0 0 0 0 0 0 0 0 0 0 0 0 0 0 0 0 0 0 0 0 0 0 0 0 0 0 0 0 0 0 0 0 0 0 0 0 0 0 0 0 0 0 0 0 0 0 0 0 0 0 0 0 0 0 0 0 0 2201 2215 2244 2244 2244 2259 2259 2259 2259 2259 2274 2274 2274 2289 2304 2320 2320 2335 2335 0 0 0 0 3718 3718 3718 3718 3718 3718 3718 3718 3718 3718 3718 3718 3718 3718 3718 3718 3718 3718 3679 3679 3679 3679 3679 3679 3679 3679 3679 3679 3679 3679 3679 3718 3718 3718 3718 3679 3679 3679 3679 3679 3679 3679 3679 3679 3679 3679 3679 3679 3679 3718 3718 3679 3718 3679 3679 3718 3679 3679 3679 3679 3679 3679 3679 3679 3679 3718 3718 3718 3759 3759 3718 3759 3759 3759 3759 3800 3759 3800 3759 3759 3759 3759 3718 3718 3759 3759 3759 3800 3800 3800 3800 3800 3800 3800 3800 3800 3800 3800 3800 3759 3759 3759 3800 3800 3759 3800 3800 3800 3759 3800 3800 3800 3800 3800 3800 3800 3800 3800 3800 3800 3759 3759 3759 3759 3759 3759 3759 3759 3800 3800 3800 3800 3800 3800 3800 3842 3800 3800 3800 3842 3842 3842 3842 3842 3842 3842 3842 3842 3842 3842 3842 3842 3842 3842 3842 3842 3842 3842 3842 3842 3842 3842 3842 3842 3842 3842 3885 3885 3842 3842 3885 3885 3885 3885 3885 3885 3885 3885 3885 3930 3930 3930 3930 3930 3930 3930 3930 3930 3930 3930 3930 3930 3930 3930 3975 3975 3975 3975 3930 3930 3930 3930 3930 3930 3930 3930 3930 3930 3930 3930 3930 3930 3930 3975 3975 3975 3975 3975 3975 3930 3930 3930 3930 3930 3930 3930 3930 3930 3930 3930 3975 3975 3975 3975 3975 3975 3975 3975 3975 3975 3975 3975 3975 3975 3975 3975 3975 3975 3975 3975 3975 3975 3975 3975 3975 3975 3975 3975 3975 3975 3975 3975 3975 3975 3975 3975 3975 3975 3975 3975 3975 3975 3975 3975 3975 3975 3975 3975 3975 3975 3975 3975 3975 3975 3930 3975 3975 3975 3930 3930 3930 3930 3930 3930 3930 3930 3930 3930 3930 3930 3930 3930 3930 3930 3930 3930 3930 3885 3885 3930 3930 3930 3930 3930 3975 3975 3975 3975 3975 3975 3930 3930 3930 3930 3930 3930 3930 3930 3930 3930 3930 3930 3930 3975 3975 3930 3975 3930 3930 3930 3930 3930 3930 3930 3930 3930 3930 3930 3930 3930 3930 3930 3930 3930 3930 3930 3930 3930 3930 3975 3975 3975 3975 3975 3930 3930 3930 3930 3930 3930 3930 3930 3975 3975 3930 3930 3930 3930 3885 3885 3930 3930 3930 3930 3930 3930 3930 3885 3885 3885 3885 3885 3930 3885 3930 3930 3930 3930 3930 3975 3975 3975 3930 3975 3930 3930 3930 3930 3930 3885 3885 3885 3930 3930 3885 3885 3885 3885 3885 3885 3885 3885 3885 3885 3885 3885 3930 3975 3975 3975 3975 3975 4021 4021 3975 3975 3975 3930 3930 3930 3930 3885 3885 3885 3885 3885 3885 3885 3885 3930 3930 3885 3885 3885 3885 3842 3842 3842 3842 3842 3842 3842 3800 3800 3759 3759 3718 3679 3640 3602 3602 3602 3602 3602 3640 3640 3602 3602 3565 3565 3565 3528 3493 3493 3493 3493 3458 3423 3390 3357 3357 3357 3357 3357 3357 3357 3357 3357 3357 3324 3293 3293 3324 3324 3324 3262 3262 3231 3172 3172 3143 3172 3172 3172 3172 3172 3172 3143 3172
    0 0 0 0 0 0 0 0 0 0 0 0 0 0 0 0 0 0 0 0 0 0 0 0 0 0 0 0 0 0 0 0 0 0 0 0 0 0 0 0 0 0 0 0 0 0 0 0 0 0 0 0 0 0 0 0 0 0 0 0 0 0 0 0 0 0 0 0 0 0 0 0 0 0 0 0 0 0 0 0 0 0 0 0 0 0 0 0 0 0 0 0 0 0 0 0 0 0 2201 2215 2215 2244 2244 2259 2259 2259 2259 2259 2259 2274 2274 2289 2304 2320 2320 2320 2320 2335 0 0 0 0 3718 3718 3718 3718 3718 3718 3718 3718 3718 3718 3679 3679 3718 3718 3718 3718 3718 3679 3679 3679 3679 3679 3679 3679 3679 3679 3679 3679 3679 3679 3718 3679 3718 3718 3679 3679 3679 3679 3679 3679 3679 3679 3679 3679 3679 3718 3718 3718 3718 3718 3718 3718 3718 3718 3718 3679 3679 3679 3679 3679 3679 3679 3679 3679 3718 3718 3718 3718 3718 3718 3718 3759 3759 3759 3759 3759 3759 3759 3759 3718 3718 3718 3718 3718 3759 3759 3759 3759 3759 3759 3800 3800 3800 3800 3800 3800 3800 3842 3800 3800 3800 3800 3800 3800 3759 3759 3842 3759 3718 3759 3718 3759 3800 3800 3759 3800 3800 3800 3800 3800 3800 3800 3800 3800 3759 3759 3759 3800 3800 3800 3800 3800 3800 3800 3842 3842 3842 3842 3842 3842 3842 3842 3842 3842 3842 3842 3842 3842 3842 3842 3842 3842 3842 3842 3842 3842 3842 3842 3842 3842 3842 3842 3842 3842 3885 3885 3885 3842 3842 3842 3842 3842 3842 3842 3842 3885 3885 3885 3885 3930 3930 3930 3930 3930 3930 3885 3930 3885 3930 3885 3930 3930 3930 3975 3975 3975 3975 3930 3930 3930 3930 3930 3930 3930 3930 3930 3930 3930 3930 3930 3930 3930 3975 3975 3975 3975 3975 3975 3930 3930 3930 3930 3930 3930 3930 3930 3930 3930 3930 3975 3930 3975 3975 3975 3975 3975 3975 3975 3975 3975 3975 3975 3975 3975 3975 3975 3975 3975 3975 3975 3975 3975 3975 3975 3975 3975 3975 3975 3975 3975 3975 3975 3975 3975 3975 3975 3975 3975 3975 3975 3975 3975 3975 3975 4021 4021 4021 3975 3975 3975 3975 3975 3975 3975 3975 3975 3975 3930 3930 3930 3930 3930 3885 3930 3885 3930 3930 3930 3930 3930 3930 3930 3930 3930 3930 3930 3885 3885 3885 3930 3930 3930 3930 3975 3975 3975 3975 3975 3975 3930 3930 3930 3930 3930 3930 3930 3930 3930 3930 3930 3930 3975 3975 3975 3975 3975 3930 3930 3930 3930 3930 3930 3930 3930 3930 3930 3930 3930 3930 3930 3930 3930 3930 3930 3930 3930 3975 3975 3975 3975 3975 3975 3975 3930 3930 3930 3930 3930 3930 3930 3975 3975 3975 3975 3975 3930 3975 3930 3930 3930 3930 3930 3930 3930 3930 3930 3885 3885 3930 3930 3885 3930 3930 3930 3930 3930 3930 3930 3975 3975 3975 3975 3975 3930 3930 3930 3930 3930 3885 3930 3930 3930 3930 3885 3885 3930 3885 3885 3885 3885 3885 3885 3930 3930 3930 3930 3975 3975 3975 4021 3975 4021 4021 3975 3885 3885 3885 3975 3930 3930 3885 3885 3885 3885 3885 3885 3885 3885 3930 3930 3885 3885 3885 3842 3842 3842 3842 3842 3842 3842 3842 3842 3800 3800 3718 3718 3718 3602 3602 3602 3602 3602 3602 3602 3640 3640 3602 3602 3565 3565 3528 3493 3493 3493 3493 3493 3423 3390 3390 3357 3390 3357 3357 3357 3357 3357 3357 3357 3324 3324 3293 3293 3324 3293 3262 3262 3231 3172 3172 3172 3201 3201 3201 3201 3201 3172 3143 3172
    0 0 0 0 0 0 0 0 0 0 0 0 0 0 0 0 0 0 0 0 0 0 0 0 0 0 0 0 0 0 0 0 0 0 0 0 0 0 0 0 0 0 0 0 0 0 0 0 0 0 0 0 0 0 0 0 0 0 0 0 0 0 0 0 0 0 0 0 0 0 0 0 0 0 0 0 0 0 0 0 0 0 0 0 0 0 0 0 0 0 0 0 0 0 0 0 0 0 2201 2215 2230 2230 2244 2244 2244 2244 2259 2259 2259 2274 2274 2289 2304 2320 2335 2320 2320 2335 0 0 0 0 3679 3718 3718 3718 3718 3718 3718 3718 3718 3718 3679 3679 3679 3718 3718 3679 3679 3679 3679 3679 3679 3679 3679 3679 3679 3679 3679 3679 3640 3679 3679 3679 3718 3679 3679 3679 3640 3640 3640 3679 3679 3679 3679 3679 3679 3718 3718 3718 3718 3718 3718 3718 3718 3718 3718 3679 3679 3679 3679 3679 3679 3679 3679 3718 3718 3718 3718 3718 3718 3718 3718 3718 3718 3718 3759 3759 3759 3718 3718 3718 3718 3718 3718 3718 3718 3759 3759 3759 3759 3759 3759 3800 3800 3800 3800 3800 3800 3800 3800 3800 3800 3800 3800 3800 3800 3759 3759 3718 3718 3718 3718 3759 3800 3800 3800 3800 3800 3800 3800 3800 3800 3800 3800 3800 3800 3800 3800 3800 3800 3800 3800 3800 3800 3800 3800 3800 3800 3800 3800 3800 3842 3842 3842 3842 3842 3842 3842 3842 3842 3842 3842 3800 3842 3842 3842 3800 3842 3842 3842 3842 3842 3842 3842 3885 3885 3885 3885 3842 3842 3842 3842 3842 3842 3842 3885 3885 3885 3885 3885 3885 3930 3885 3885 3885 3885 3885 3885 3885 3885 3885 3930 3930 3930 3975 3930 3930 3930 3930 3885 3930 3930 3930 3930 3930 3930 3930 3930 3930 3930 3930 3975 3930 3975 3930 3975 3930 3930 3930 3930 3930 3930 3930 3930 3930 3930 3930 3930 3930 3930 3930 3930 3930 3975 3930 3930 3975 3975 3975 3975 3975 3975 3975 3975 3975 3975 3975 3975 3975 3975 3975 3975 3975 3975 3975 3975 3975 3975 3975 3975 3975 3975 3975 3975 3975 3975 3975 3975 3975 3975 3975 3975 3975 3975 3975 4021 4021 4021 3975 3975 3975 3975 3975 3975 3975 3975 3975 3975 3930 3930 3930 3930 3930 3885 3930 3930 3930 3930 3930 3930 3930 3930 3930 3930 3930 3885 3930 3885 3885 3885 3930 3930 3930 3930 3975 3975 3975 3975 3975 3975 3930 3930 3930 3930 3930 3930 3930 3930 3930 3930 3930 3930 3975 3975 3975 3975 3975 3930 3930 3930 3930 3930 3930 3930 3930 3930 3930 3930 3930 3930 3930 3930 3975 3975 3930 3930 3930 3975 3975 3975 3975 3975 3930 3930 3930 3930 3930 3930 3930 3930 3930 3975 3975 3975 3975 3975 3975 3975 3930 3930 3930 3930 3930 3930 3930 3885 3885 3885 3885 3885 3885 3885 3930 3930 3930 3930 3930 3930 3975 3975 3975 3930 3930 3975 3930 3975 3975 3975 3930 3930 3930 3930 3975 3930 3930 3885 3930 3930 3885 3885 3885 3885 3885 3930 3930 3930 3930 3975 3975 4021 3975 3975 3930 3975 3930 3930 3885 3885 3885 3930 3930 3930 3930 3885 3885 3885 3885 3930 3930 3930 3930 3930 3885 3885 3930 3885 3842 3842 3842 3842 3842 3842 3842 3800 3800 3718 3718 3718 3640 3602 3602 3602 3602 3602 3602 3602 3602 3602 3602 3602 3565 3528 3528 3493 3493 3493 3493 3458 3390 3390 3390 3390 3390 3390 3357 3357 3357 3357 3357 3324 3324 3293 3293 3324 3324 3293 3262 3262 3172 3172 3172 3172 3172 3172 3201 3201 3201 3143 3172
    0 0 0 0 0 0 0 0 0 0 0 0 0 0 0 0 0 0 0 0 0 0 0 0 0 0 0 0 0 0 0 0 0 0 0 0 0 0 0 0 0 0 0 0 0 0 0 0 0 0 0 0 0 0 0 0 0 0 0 0 0 0 0 0 0 0 0 0 0 0 0 0 0 0 0 0 0 0 0 0 0 0 0 0 0 0 0 0 0 0 0 0 0 0 0 0 0 0 0 2215 2230 2230 2244 2244 2259 2259 2259 2259 2259 2274 2274 2274 2289 2304 2304 2320 2320 0 0 0 0 0 0 3718 3718 3718 3718 3718 3718 3718 3718 3718 3679 3679 3679 3718 3718 3679 3718 3679 3679 3679 3679 3679 3679 3679 3679 3679 3679 3679 3679 3679 3679 3679 3679 3679 3640 3640 3679 3679 3679 3679 3679 3679 3679 3679 3679 3679 3679 3679 3679 3679 3679 3679 3718 3718 3718 3679 3679 3679 3679 3679 3679 3679 3679 3679 3718 3718 3718 3718 3718 3718 3718 3718 3718 3759 3759 3759 3759 3718 3718 3718 3718 3718 3679 3679 3718 3718 3718 3759 3718 3759 3759 3759 3800 3800 3800 3842 3800 3842 3800 3800 3800 3800 3800 3759 3759 3759 3759 3718 3718 3718 3718 3759 3759 3759 3800 3800 3800 3800 3800 3800 3800 3800 3800 3800 3800 3759 3759 3800 3800 3800 3759 3759 3800 3800 3800 3800 3800 3800 3800 3842 3842 3842 3842 3842 3842 3842 3842 3842 3800 3842 3842 3800 3800 3800 3800 3800 3842 3842 3842 3842 3842 3842 3842 3842 3842 3885 3842 3842 3842 3842 3842 3842 3842 3842 3885 3885 3885 3885 3885 3885 3885 3885 3885 3842 3885 3885 3885 3885 3885 3885 3885 3930 3930 3930 3930 3930 3975 3930 3930 3885 3885 3885 3930 3930 3930 3930 3930 3930 3930 3930 3930 3930 3930 3930 3975 3930 3930 3930 3930 3930 3930 3930 3930 3930 3930 3930 3930 3930 3930 3930 3930 3930 3975 3930 3930 3975 3975 3975 3975 3975 3975 3975 3975 3975 3975 3975 3975 3975 3975 3975 3975 3975 3975 3975 3975 3975 3975 3975 3975 3975 3975 3975 3975 3975 3975 3975 3975 3975 3975 3975 3975 3975 3975 3975 4021 3975 3975 3975 3975 3975 3975 3975 3975 3975 3975 3975 3975 3930 3930 3930 3930 3930 3930 3930 3930 3930 3930 3930 3930 3930 3930 3930 3930 3930 3930 3930 3930 3885 3885 3930 3930 3930 3930 3930 3975 3975 3975 3975 3975 3930 3930 3930 3930 3930 3930 3930 3930 3930 3930 3930 3975 3975 4021 3975 3975 4021 3975 3930 3930 3930 3930 3930 3930 3930 3930 3930 3930 3930 3930 3930 3930 3930 3930 3930 3930 3975 3975 3975 3975 3975 3975 3975 3930 3930 3930 3930 3930 3975 3975 3975 3975 3975 3975 3975 3975 3975 3930 3930 3930 3930 3930 3930 3930 3885 3930 3885 3930 3930 3930 3930 3930 3975 3975 3975 3975 3975 3975 3975 3975 3975 3975 3975 4021 3930 3975 3975 4021 3975 3975 3975 3975 3975 3975 3930 3930 3975 3975 3975 3930 3930 3885 3930 3930 3930 3930 3930 3975 3975 4021 3975 3975 3975 3975 3930 3930 3930 3885 3930 3930 3930 3885 3930 3885 3885 3885 3930 3930 3975 4021 3975 3975 4021 3975 3930 3885 3842 3842 3842 3842 3842 3842 3800 3800 3759 3759 3718 3718 3640 3602 3602 3602 3602 3602 3602 3602 3640 3602 3602 3602 3602 3528 3493 3493 3493 3493 3493 3458 3390 3390 3390 3390 3390 3390 3357 3357 3357 3324 3357 3293 3293 3262 3262 3293 3262 3262 3231 3172 3172 3172 3172 3172 3172 3172 3172 3172 3172 3143 3143
    0 0 0 0 0 0 0 0 0 0 0 0 0 0 0 0 0 0 0 0 0 0 0 0 0 0 0 0 0 0 0 0 0 0 0 0 0 0 0 0 0 0 0 0 0 0 0 0 0 0 0 0 0 0 0 0 0 0 0 0 0 0 0 0 0 0 0 0 0 0 0 0 0 0 0 0 0 0 0 0 0 0 0 0 0 0 0 0 0 0 0 0 0 0 0 0 0 0 0 2215 2230 2230 2244 2244 2244 2244 2259 2259 2259 2259 2274 2274 2274 2289 2304 2304 2320 0 0 0 0 0 0 3679 3718 3718 3718 3718 3718 3718 3718 3718 3679 3679 3718 3718 3718 3718 3718 3679 3679 3679 3679 3679 3640 3640 3640 3640 3679 3640 3640 3640 3640 3640 3679 3679 3640 3640 3679 3679 3679 3679 3679 3679 3679 3679 3679 3679 3679 3679 3679 3679 3679 3679 3679 3679 3679 3679 3679 3679 3679 3679 3679 3679 3679 3679 3718 3718 3718 3718 3718 3718 3718 3718 3718 3759 3759 3759 3718 3718 3718 3718 3718 3718 3679 3718 3718 3718 3718 3718 3718 3718 3759 3759 3759 3759 3800 3800 3800 3842 3800 3800 3800 3800 3800 3800 3800 3759 3759 3718 3718 3718 3718 3759 3759 3759 3800 3800 3800 3800 3800 3800 3800 3842 3800 3800 3800 3800 3800 3800 3800 3800 3759 3800 3800 3800 3800 3800 3800 3800 3800 3800 3842 3842 3800 3842 3842 3842 3842 3842 3800 3800 3842 3800 3800 3800 3800 3800 3842 3842 3842 3842 3842 3842 3842 3842 3842 3842 3842 3842 3842 3885 3885 3842 3885 3885 3885 3885 3885 3885 3885 3930 3885 3885 3885 3842 3885 3885 3885 3885 3885 3930 3930 3930 3930 3930 3930 3975 3975 3930 3930 3930 3930 3930 3930 3930 3930 3930 3930 3930 3930 3930 3930 3930 3930 3930 3975 3930 3930 3930 3975 3930 3930 3930 3930 3930 3930 3930 3930 3930 3930 3930 3930 3930 3930 3930 3930 3930 3930 3930 3975 3975 3975 3975 3975 3975 3975 3975 3975 3975 3975 3975 3975 3975 3975 3975 3975 3975 3975 3975 3975 3975 3975 3975 3975 3975 3975 3975 3975 3975 3975 3975 3975 3975 3975 3975 3975 3975 3975 3975 3975 3975 3975 3975 3975 3930 3975 3975 3975 3930 3930 3930 3930 3930 3930 3930 3930 3930 3975 3930 3930 3930 3930 3930 3930 3930 3930 3930 3930 3885 3885 3930 3930 3930 3930 3930 3930 3930 3975 3930 3975 3930 3975 3930 3930 3930 3930 3930 3930 3930 3930 3930 3975 3975 3975 3975 3975 3975 3975 3930 3930 3930 3930 3930 3885 3930 3930 3930 3975 3930 3930 3930 3975 3930 3930 3930 3930 3975 3975 3975 3975 3975 3975 3975 3930 3930 3930 3930 3975 3975 3975 3975 3975 3975 3975 3975 3975 3975 3930 3885 3930 3930 3930 3930 3885 3885 3930 3930 3930 3930 3975 3975 3975 3975 3975 3975 3975 3975 3975 3975 3975 3975 3975 3975 3975 3930 3975 3975 3975 3975 3975 3975 3975 3975 3975 3975 3930 3975 3975 3975 3930 3930 3930 3930 3930 3930 3930 3930 3975 3975 3975 3975 3975 3930 3975 3930 3930 3930 3885 3930 3930 3930 3885 3930 3930 3885 3930 3975 3975 4021 4021 4021 4021 4021 4021 3930 3885 3842 3842 3842 3800 3800 3800 3800 3800 3759 3718 3718 3679 3602 3602 3602 3602 3602 3602 3602 3602 3602 3602 3602 3602 3565 3565 3528 3493 3458 3458 3458 3423 3390 3390 3390 3390 3390 3390 3357 3357 3324 3324 3293 3293 3262 3231 3262 3262 3262 3231 3231 3201 3172 3201 3172 3172 3172 3172 3172 3172 3172 3143 3172
    0 0 0 0 0 0 0 0 0 0 0 0 0 0 0 0 0 0 0 0 0 0 0 0 0 0 0 0 0 0 0 0 0 0 0 0 0 0 0 0 0 0 0 0 0 0 0 0 0 0 0 0 0 0 0 0 0 0 0 0 0 0 0 0 0 0 0 0 0 0 0 0 0 0 0 0 0 0 0 0 0 0 0 0 0 0 0 0 0 0 0 0 0 0 0 0 0 0 0 2215 2230 2230 2230 2230 2244 2244 2259 2259 2259 2259 2274 2274 2274 2289 2289 2289 2289 0 0 0 0 0 3640 3679 3718 3718 3679 3718 3718 3718 3718 3718 3679 3679 3718 3718 3718 3718 3718 3640 3640 3679 3679 3640 3640 3640 3640 3640 3679 3640 3640 3640 3640 3679 3679 3679 3679 3679 3679 3679 3679 3679 3679 3679 3679 3679 3679 3679 3679 3679 3679 3679 3679 3679 3718 3718 3718 3679 3679 3679 3679 3679 3679 3679 3679 3679 3679 3679 3679 3718 3718 3718 3718 3718 3718 3718 3759 3718 3718 3718 3718 3718 3718 3718 3679 3718 3718 3718 3718 3718 3718 3718 3759 3759 3759 3759 3759 3800 3800 3842 3842 3800 3800 3842 3842 3800 3800 3759 3800 3718 3759 3718 3718 3759 3759 3759 3800 3800 3800 3800 3800 3800 3800 3842 3800 3800 3800 3800 3800 3800 3800 3800 3759 3800 3800 3800 3800 3800 3800 3800 3800 3800 3842 3842 3842 3842 3842 3842 3842 3842 3800 3800 3800 3800 3800 3800 3800 3800 3842 3842 3842 3842 3842 3842 3842 3842 3842 3842 3842 3842 3885 3885 3885 3885 3885 3885 3885 3930 3930 3885 3885 3885 3885 3885 3885 3842 3885 3885 3842 3885 3885 3885 3885 3930 3930 3930 3930 3930 3975 3930 667 665 669 3930 3930 674 674 3930 3930 3930 3930 3930 3930 3930 3930 3930 3930 3930 3930 3930 3975 3930 3930 3930 3930 3930 3930 3930 3930 3975 3975 3975 3975 3975 3975 3930 3975 3930 3930 3930 3930 3975 3975 3975 3975 3975 3975 3975 3975 3975 3975 3975 3975 3975 4021 4021 4021 3975 3975 3975 3975 3975 3975 3975 3975 3975 3975 3975 3975 3975 3975 3975 3975 3975 3975 3975 3975 3975 3975 3975 3975 3975 3975 3975 3975 3975 3975 3975 3975 3930 3930 3930 3930 3930 3930 3930 3930 3930 3930 3930 3930 3930 3930 3930 3930 3930 3930 3930 3930 3885 3885 3885 3885 3930 3930 3930 3930 3930 3930 3930 3930 3930 3930 3975 3930 3930 3930 3930 3930 3930 3930 3930 3975 3975 3975 3975 3930 3975 3930 3930 3930 3930 3930 3930 3930 3930 3930 3930 3930 3930 3930 3930 3930 3930 3930 3930 3930 3975 3975 3975 3975 3975 3975 3930 3930 3930 3930 3975 3975 3975 3975 3975 3975 3975 3975 3975 3975 3975 3930 3885 3885 3930 3930 3930 3885 3930 3930 3930 3975 3975 3975 3975 3975 3975 3975 3975 3975 3975 3930 3930 3975 3930 3930 3930 3975 3930 3975 3975 4021 3975 3975 3975 3975 3975 3975 3975 3975 3975 3975 3975 3975 3930 3930 3930 3930 3930 3930 3930 3930 3975 3975 3975 3930 3930 3975 3930 3930 3930 3930 3930 3975 3975 3885 3930 3930 3930 3930 3975 3975 4021 4021 4021 4021 4021 3975 3930 3885 3885 3842 3842 3800 3800 3800 3800 3759 3718 3718 3718 3718 3640 3602 3602 3640 3640 3640 3602 3602 3640 3602 3602 3602 3565 3565 3528 3493 3458 3458 3458 3423 3390 3390 3390 3390 3390 3357 3357 3324 3324 3293 3293 3262 3262 3231 3231 3262 3262 3262 3231 3201 3201 3201 3201 3172 3172 3172 3172 3201 3172 3143 3172
    0 0 0 0 0 0 0 0 0 0 0 0 0 0 0 0 0 0 0 0 0 0 0 0 0 0 0 0 0 0 0 0 0 0 0 0 0 0 0 0 0 0 0 0 0 0 0 0 0 0 0 0 0 0 0 0 0 0 0 0 0 0 0 0 0 0 0 0 0 0 0 0 0 0 0 0 0 0 0 0 0 0 0 0 0 0 0 0 0 0 0 0 0 0 0 0 0 0 0 2215 2215 2230 2230 2230 2230 2244 2259 2259 2259 2259 2274 2274 2274 2274 2274 2274 2274 0 0 0 0 0 3640 3679 3718 3718 3718 3718 3718 3718 3718 3718 3679 3679 3679 3718 3718 3718 3679 3640 3640 3640 3640 3640 3602 3602 3602 3602 3640 3640 3640 3640 3640 3679 3679 3679 3679 3679 3679 3679 3679 3679 3679 3679 3679 3679 3679 3679 3679 3679 3679 3679 3679 3679 3718 3718 3718 3679 3679 3679 3679 3679 3679 3679 3679 3679 3679 3679 3679 3679 3718 3679 3718 3718 3718 3718 3718 3718 3718 3718 3718 3718 3718 3718 3679 3718 3718 3718 3718 3718 3718 3718 3718 3759 3759 3759 3759 3800 3800 3842 3842 3800 3800 3800 3800 3800 3800 3800 3800 3718 3759 3718 3718 3759 3759 3759 3800 3800 3800 3800 3800 3800 3800 3800 3800 3800 3800 3800 3800 3800 3800 3800 3759 3800 3800 3800 3800 3800 3800 3800 3800 3800 3842 3842 3800 3800 3800 3800 3800 3800 3800 3800 3800 3800 3800 3800 3800 3800 3842 3842 3842 3842 3842 3842 3842 3842 3842 3842 3842 3842 3885 3885 3885 3885 3885 3885 3885 3930 3885 3885 3885 3885 3885 3885 3842 3842 3885 3885 3842 3885 3885 3930 3885 3930 3930 3885 665 665 665 665 665 668 668 670 670 673 673 673 673 673 3930 3930 3930 3930 3930 3930 3930 3930 3930 3930 3930 3930 3930 3975 3930 3975 3930 3975 3975 3975 3975 3975 3975 3975 3975 3930 3930 3930 3930 3930 3930 3975 3975 3975 3975 3975 3975 3975 3975 3975 3975 3975 4021 4021 4021 4021 4021 4021 3975 3975 3975 3975 3930 3930 3930 3930 3930 3930 3975 3975 3975 3975 3975 3975 3975 3975 3975 3975 3975 3975 3975 3975 3975 3975 3975 3975 3975 3975 3975 3930 3930 3930 3930 3930 3930 3930 3930 3930 3930 3930 3930 3930 3930 3930 3930 3930 3930 3930 3930 3885 3885 3930 3930 3930 3930 3930 3930 3930 3930 3930 3930 3930 3930 3975 3930 3930 3930 3930 3930 3930 3930 3930 3930 3930 3930 3930 3930 3975 3930 3930 3930 3930 3930 3930 3930 3930 3930 3930 3930 3930 3930 3930 3930 3975 3930 3930 3930 3975 3975 3975 3930 3930 3930 3930 3930 3930 3930 3975 3975 3975 3975 3975 3975 3975 3975 3975 3975 3975 3930 3885 3885 3930 3930 3930 3885 3930 3930 3930 3975 3975 3975 3975 3975 3975 3975 3975 3930 3930 3930 3930 3930 3975 3975 3975 3975 3975 3975 3975 4021 4021 3975 4021 3975 4021 3975 3975 3975 3975 3975 3975 3975 3930 3930 3930 3930 3930 3930 3930 3930 3975 3975 3975 3930 3930 3975 3975 3930 3930 3930 3975 3975 3975 3975 3975 3975 3975 3975 3975 4021 4021 4021 4021 4021 4021 3975 3930 3885 3885 3842 3800 3800 3800 3800 3800 3759 3718 3718 3718 3718 3640 3602 3640 3640 3640 3640 3602 3602 3640 3640 3602 3602 3565 3565 3528 3493 3458 3458 3423 3423 3390 3390 3390 3390 3357 3357 3324 3293 3324 3293 3293 3262 3262 3231 3231 3262 3231 3231 3231 3201 3201 3201 3201 3172 3172 3172 3201 3201 3201 3172 3172
    0 0 0 0 0 0 0 0 0 0 0 0 0 0 0 0 0 0 0 0 0 0 0 0 0 0 0 0 0 0 0 0 0 0 0 0 0 0 0 0 0 0 0 0 0 0 0 0 0 0 0 0 0 0 0 0 0 0 0 0 0 0 0 0 0 0 0 0 0 0 0 0 0 0 0 0 0 0 0 0 0 0 0 0 0 0 0 0 0 0 0 0 0 0 0 0 0 0 0 2215 2215 2230 2230 2230 2230 2244 2244 2259 2259 2259 2259 2274 2274 2274 2274 2274 2274 0 0 0 0 0 3640 3679 3679 3718 3679 3679 3679 3718 3718 3679 3679 3679 3679 3718 3718 3718 3679 3640 3640 3640 3640 3640 3602 3602 3602 3602 3640 3640 3640 3640 3640 3640 3679 3679 3679 3679 3679 3679 3679 3679 3679 3679 3679 3679 3679 3679 3679 3679 3679 3679 3679 3679 3718 3718 3679 3679 3679 3679 3679 3679 3679 3679 3679 3679 3679 3679 3679 3679 3718 3679 3679 3718 3718 3718 3718 3718 3718 3718 3718 3718 3718 3718 3679 3718 3718 3718 3718 3718 3718 3718 3718 3718 3759 3718 3759 3800 3800 3800 3800 3800 3800 3800 3800 3759 3800 3759 3759 3718 3759 3718 3759 3759 3759 3759 3800 3800 3800 3800 3800 3800 3800 3800 3800 3800 3800 3800 3800 3800 3800 3800 3800 3800 3800 3800 3800 3800 3800 3800 3800 3800 3800 3842 3800 3800 3800 3800 3800 3800 3800 3800 3800 3800 3800 3800 3842 3842 3842 3842 3842 3842 3842 3842 3842 3842 3842 3842 3842 3842 3842 3842 3885 3885 3885 3885 3885 3930 3930 3885 3885 3885 3885 3885 3842 3842 3885 3885 3885 3885 3930 3930 3930 3930 3930 661 664 665 667 665 667 668 668 670 670 672 672 673 673 674 674 674 674 3930 3930 3930 3930 3930 3930 3930 3930 3930 3930 3930 3975 3975 3930 3975 3975 3975 3975 3975 3975 3975 3975 3975 3975 3930 3930 3930 3975 3975 3975 3975 3975 3975 3975 3975 3975 3975 3975 3975 4021 4021 4021 4021 4068 4021 4021 3975 3975 3975 3930 3930 3930 3930 3930 3930 3930 3975 3975 3930 3930 3975 3975 3975 3975 3975 3975 3975 3975 3975 3930 3930 3930 3975 3975 3975 3975 3885 3930 3930 3930 3930 3930 3930 3930 3930 3930 3930 3930 3930 3930 3930 3930 3930 3930 3930 3930 3930 3930 3930 3930 3930 3930 3930 3930 3930 3930 3930 3930 3930 3930 3930 3930 3930 3930 3930 3930 3885 3930 3885 3930 3930 3930 3930 3930 3975 3930 3930 3930 3930 3930 3930 3930 3930 3930 3930 3930 3930 3930 3930 3930 3930 3930 3930 3930 3930 3975 3930 3930 3930 3930 3930 3930 3930 3930 3930 3975 3975 3975 3975 3975 3975 3975 3975 3975 3975 3975 3885 3885 3930 3930 3885 3885 3885 3930 3930 3930 3975 3975 3975 3975 3975 3930 3930 3930 3930 3930 3930 3930 3930 3975 3975 3975 3975 3975 3975 4021 3975 3975 4021 3975 4021 3975 3975 3975 3975 3975 3975 3975 3930 3930 3930 3930 3930 3930 3930 3930 3930 3930 3930 3930 3930 3975 3975 3975 3975 3975 3975 3975 4021 3975 4021 3975 3975 3975 3975 4021 3975 4021 4021 4021 4021 3930 3930 3885 3885 3842 3800 3800 3800 3800 3800 3800 3759 3759 3759 3718 3640 3640 3640 3640 3640 3640 3602 3602 3640 3640 3640 3602 3565 3565 3528 3458 3423 3458 3458 3423 3390 3390 3390 3390 3357 3357 3324 3293 3293 3293 3293 3262 3262 3231 3231 3262 3231 3231 3231 3201 3201 3201 3201 3201 3201 3172 3201 3201 3172 3143 3172
    0 0 0 0 0 0 0 0 0 0 0 0 0 0 0 0 0 0 0 0 0 0 0 0 0 0 0 0 0 0 0 0 0 0 0 0 0 0 0 0 0 0 0 0 0 0 0 0 0 0 0 0 0 0 0 0 0 0 0 0 0 0 0 0 0 0 0 0 0 0 0 0 0 0 0 0 0 0 0 0 0 0 0 0 0 0 0 0 0 0 0 0 0 0 0 0 0 0 0 2215 2215 2215 2215 2230 2230 2230 2244 2244 2259 2259 2259 2259 2274 2274 2274 2259 2259 0 0 0 0 0 3602 3679 3679 3679 3679 3679 3718 3718 3718 3718 3718 3718 3718 3718 3718 3718 3679 3640 3640 3640 3640 3640 3602 3602 3602 3640 3640 3640 3640 3640 3640 3640 3640 3679 3679 3679 3679 3679 3679 3679 3679 3679 3679 3679 3679 3679 3679 3679 3679 3679 3679 3679 3718 3718 3718 3718 3718 3718 3679 3679 3679 3679 3679 3679 3679 3679 3679 3679 3718 3679 3718 3718 3718 3718 3718 3718 3718 3718 3718 3718 3718 3718 3718 3718 3718 3718 3718 3718 3718 3718 3718 3718 3759 3718 3759 3759 3759 3800 3800 3800 3759 3800 3800 3759 3759 3759 3759 3718 3759 3759 3759 3759 3759 3759 3800 3800 3800 3800 3800 3800 3800 3800 3800 3800 3800 3800 3800 3800 3800 3800 3800 3800 3800 3800 3800 3800 3800 3800 3800 3800 3800 3842 3800 3800 3800 3800 3800 3800 3800 3800 3800 3800 3800 3800 3842 3842 3842 3842 3842 3842 3842 3842 3842 3842 3842 3842 3842 3842 3842 3885 3885 3885 3885 3885 3885 3930 3930 3885 3885 3885 3885 3885 3842 3842 3842 3885 3885 3885 3930 3930 3930 3930 3930 663 664 667 667 667 667 668 669 669 670 670 670 672 672 673 673 674 674 674 674 3930 3930 3930 3930 3930 3930 3930 3930 3975 3975 3975 3975 3975 3975 3975 3975 3975 3975 3975 3975 3930 3975 3930 3930 3930 3975 3975 3975 3975 3975 3975 3975 3975 3975 3975 3975 3975 4021 4021 4068 4068 4068 4021 4021 3975 3975 3975 3930 3930 3930 3930 3930 3930 3930 3975 3975 3930 3930 3930 3975 3930 3930 3930 3930 3975 3930 3930 3930 3930 3930 3975 3975 3975 3975 3885 3930 3930 3930 3930 3930 3930 3930 3930 3930 3930 3930 3930 3930 3930 3930 3930 3930 3930 3930 3930 3930 3930 3930 3930 3930 3930 3930 3930 3930 3930 3930 3930 3930 3930 3930 3930 3930 3930 3930 3930 3930 3930 3930 3930 3930 3975 3930 3975 3975 3930 3930 3930 3930 3930 3930 3930 3930 3930 3930 3930 3930 3930 3930 3930 3930 3930 3930 3930 3930 3930 3885 3885 3930 3885 3885 3930 3930 3930 3975 3975 3975 3975 3975 3975 3975 3975 3975 3975 3975 3930 3930 3930 3930 3885 3885 3885 3930 3930 3930 3930 3975 3975 3975 3975 3930 3975 3930 3930 3885 3930 3930 3930 3930 3975 3975 3975 3975 3975 4021 4021 3975 4021 3975 3975 3975 3975 3975 3975 3975 3975 3930 3930 3975 3930 3975 3975 3975 3930 3975 3975 3930 3975 3930 3975 3975 3975 3975 3975 4021 4021 4021 4021 4021 4021 4021 4021 3975 3975 3975 3975 4021 3975 4021 3975 3930 3885 3885 3885 3842 3800 3800 3800 3800 3800 3759 3759 3759 3759 3718 3640 3640 3640 3640 3679 3640 3640 3640 3640 3640 3640 3602 3565 3565 3528 3423 3423 3423 3423 3423 3390 3390 3390 3390 3357 3357 3324 3324 3324 3293 3293 3262 3262 3262 3231 3231 3231 3231 3231 3231 3201 3231 3201 3201 3201 3201 3201 3201 3201 3143 3172
    0 0 0 0 0 0 0 0 0 0 0 0 0 0 0 0 0 0 0 0 0 0 0 0 0 0 0 0 0 0 0 0 0 0 0 0 0 0 0 0 0 0 0 0 0 0 0 0 0 0 0 0 0 0 0 0 0 0 0 0 0 0 0 0 0 0 0 0 0 0 0 0 0 0 0 0 0 0 0 0 0 0 0 0 0 0 0 0 0 0 0 0 0 0 0 0 0 0 0 2215 2215 2215 2215 2230 2230 2230 2244 2244 2244 2244 2259 2259 2259 2259 2274 2259 2259 0 0 0 0 0 0 3679 3679 3718 3679 3679 3718 3718 3718 3718 3718 3718 3718 3718 3718 3718 3718 3679 3640 3640 3640 3640 3640 3640 3640 3640 3640 3640 3640 3640 3640 3640 3640 3679 3679 3679 3679 3679 3679 3679 3679 3679 3679 3679 3679 3679 3679 3679 3679 3679 3679 3679 3679 3718 3679 3718 3718 3718 3679 3718 3718 3679 3679 3679 3679 3679 3679 3679 3679 3679 3718 3718 3718 3718 3718 3718 3718 3718 3718 3718 3718 3718 3718 3718 3718 3718 3718 3718 3718 3718 3718 3718 3718 3718 3759 3759 3759 3759 3800 3759 3759 3800 3759 3759 3800 3759 3800 3759 3759 3759 3759 3759 3759 3759 3759 3759 3800 3759 3759 3759 3759 3800 3800 3759 3759 3800 3800 3800 3800 3800 3800 3800 3800 3800 3800 3800 3800 3800 3800 3800 3800 3842 3800 3800 3800 3800 3800 3800 3800 3800 3800 3800 3800 3842 3842 3842 3842 3842 3842 3842 3842 3842 3842 3842 3842 3842 3842 3842 3842 3842 3885 3885 3930 3885 3930 3930 3930 3885 3885 3885 3885 3885 3842 3842 3885 3885 3885 3885 3930 3930 3930 3930 3930 663 664 665 667 665 667 668 669 670 670 670 670 670 672 672 673 673 674 674 674 676 676 676 3842 3885 3930 3930 3930 3930 3930 3975 3930 3975 3975 3975 3975 3975 3975 3975 3975 3975 3975 3930 3930 3930 3930 3975 3975 3975 3975 3975 3975 3975 3975 3975 3975 3975 4021 0 0 0 0 3975 3975 3975 3975 3975 3975 3975 3975 3930 3930 3930 3930 3975 3930 3930 3930 3930 3930 3930 3930 3930 3930 3930 3930 3930 3930 3930 3930 3930 3930 3930 3930 3885 3885 3885 3885 3930 3930 3930 3930 3930 3930 3930 3930 3930 3930 3930 3930 3930 3930 3930 3930 3930 3930 3930 3930 3885 3885 3885 3930 3930 3930 3885 3885 3930 3930 3930 3930 3930 3930 3930 3930 3885 3930 3885 3930 3930 3930 3975 3975 3975 3975 3930 3930 3930 3930 3930 3930 3930 3930 3930 3930 3930 3930 3930 3930 3930 3930 3930 3930 3930 3930 3930 3885 3885 3930 3930 3930 3930 3930 3930 3975 3975 3930 3975 3975 3930 3930 3975 3975 3975 3975 3885 3930 3930 3930 3930 3930 3885 3930 3930 3930 3975 3975 3975 3975 3930 3930 3930 3930 3885 3885 3885 3930 3930 3930 3975 3975 3975 3975 3975 3975 3975 3975 3975 3975 3975 3975 3975 3930 3930 3930 3930 3930 3930 3930 3930 3975 3975 3975 3930 3975 3975 3975 3975 3975 3975 3975 3975 4021 4021 4021 4021 4021 4021 3975 3975 3975 3975 3975 3975 3975 3975 4021 3975 4021 3975 3930 3885 3885 3842 3842 3800 3800 3800 3800 3800 3759 3759 3759 3759 3718 3640 3640 3640 3640 3679 3679 3640 3640 3640 3640 3602 3602 3565 3528 3528 3458 3458 3458 3458 3458 3390 3390 3390 3390 3357 3357 3324 3324 3324 3293 3293 3262 3262 3262 3262 3262 3231 3231 3231 3231 3201 3231 3201 3201 3201 3201 3201 3201 3201 3143 3172
    0 0 0 0 0 0 0 0 0 0 0 0 0 0 0 0 0 0 0 0 0 0 0 0 0 0 0 0 0 0 0 0 0 0 0 0 0 0 0 0 0 0 0 0 0 0 0 0 0 0 0 0 0 0 0 0 0 0 0 0 0 0 0 0 0 0 0 0 0 0 0 0 0 0 0 0 0 0 0 0 0 0 0 0 0 0 0 0 0 0 0 0 0 0 0 0 0 0 2201 2201 2201 2215 2215 2215 2215 2230 2230 2244 2244 2244 2259 2259 2259 2259 2259 2259 2259 0 0 0 0 0 0 0 3679 3718 3679 3679 3718 3718 3718 3718 3718 3679 3718 3718 3679 3679 3679 3640 3640 3640 3640 3640 3640 3640 3640 3640 3640 3640 3640 3640 3640 3640 3640 3679 3679 3679 3679 3679 3718 3679 3718 3679 3679 3679 3679 3679 3679 3679 3679 3679 3679 3679 3679 3679 3679 3718 3718 3718 3679 3679 3679 3679 3679 3679 3679 3679 3679 3679 3679 3718 3718 3718 3718 3718 3718 3718 3718 3718 3718 3718 3718 3718 3718 3718 3718 3718 3718 3718 3718 3718 3718 3718 3718 3718 3718 3759 3759 3759 3759 3759 3759 3800 3759 3759 3800 3800 3800 3759 3759 3759 3759 3759 3759 3759 3759 3759 3759 3759 3759 3759 3759 3759 3759 3759 3759 3759 3759 3759 3800 3759 3800 3800 3800 3800 3800 3800 3800 3800 3800 3800 3800 3800 3800 3800 3800 3800 3800 3800 3800 3800 3800 3800 3800 3800 3842 3842 3842 3842 3842 3842 3842 3842 3842 3800 3800 3842 3842 3842 3842 3842 3885 3885 3930 3930 3930 3930 3930 3885 3885 3885 3842 3885 3842 3842 3885 3885 3885 3885 3885 3930 3885 3930 3885 663 664 665 665 664 665 667 668 669 669 670 670 670 670 672 673 673 674 674 676 676 676 677 677 678 680 681 681 681 681 681 3975 3975 3975 3975 3975 3975 3975 3975 3975 3975 3975 3975 3930 3930 3930 3930 3975 3975 3930 3975 3975 3975 3975 3975 3975 3975 0 0 0 0 0 0 0 0 0 0 0 0 0 3930 3930 3930 3930 3975 3975 3930 3930 3930 3930 3930 3930 3930 3930 3930 3975 3930 3930 3975 3975 3975 3975 3930 3930 3885 3885 3885 3885 3885 3885 3930 3930 3930 3930 3930 3930 3930 3930 3930 3930 3930 3930 3930 3930 3930 3930 3930 3930 3885 3885 3885 3930 3885 3885 3885 3885 3885 3885 3885 3930 3930 3930 3930 3930 3930 3930 3930 3930 3930 3930 3975 3975 3975 3930 3930 3930 3930 3930 3930 3930 3930 3930 3930 3930 3885 3885 3885 3885 3930 3930 3930 3930 3930 3930 3885 3885 3885 3930 3930 3930 3930 3930 3930 3975 3930 3930 3930 3975 3930 3975 3975 3975 3975 3975 3885 3930 3930 3930 3930 3930 3930 3930 3975 3930 3975 3975 3975 3930 3930 3930 3930 3885 3885 3885 3885 3885 3930 3930 3930 3975 3975 3975 3975 3975 3975 3975 3975 3975 3975 3975 3975 3930 3930 3930 3930 3885 3930 3930 3930 3975 3975 3975 3975 3975 3975 3975 3975 3975 3975 4021 4021 4021 4021 4021 4021 4021 4021 3975 3975 3975 3975 3975 3975 3975 3975 3975 3975 3975 3930 3885 3885 3885 3842 3842 3800 3800 3800 3800 3759 3759 3718 3718 3718 3718 3640 3640 3640 3679 3679 3679 3679 3640 3640 3640 3602 3565 3528 3528 3528 3493 3458 3458 3458 3423 3390 3390 3390 3390 3357 3357 3357 3324 3324 3324 3324 3293 3293 3262 3262 3262 3262 3231 3231 3231 3231 3231 3201 3201 3201 3201 3201 3201 3172 3143 3172
    0 0 0 0 0 0 0 0 0 0 0 0 0 0 0 0 0 0 0 0 0 0 0 0 0 0 0 0 0 0 0 0 0 0 0 0 0 0 0 0 0 0 0 0 0 0 0 0 0 0 0 0 0 0 0 0 0 0 0 0 0 0 0 0 0 0 0 0 0 0 0 0 0 0 0 0 0 0 0 0 0 0 0 0 0 0 0 0 0 0 0 0 0 0 0 0 0 0 2201 2201 2201 2201 2201 2201 2215 2215 2230 2244 2244 2244 2259 2259 2259 2259 2259 2259 2244 0 0 0 0 0 0 0 0 3679 2680 2680 3679 3679 3718 3679 3718 3679 3718 3679 3679 3679 3679 3640 3640 3640 3640 3640 3640 3640 3640 3640 3640 3640 3640 3640 3640 3640 3640 3679 3679 3679 3679 3679 3679 3679 3679 3679 3679 3679 3679 3679 3679 3679 3679 3679 3679 3679 3679 3679 3679 3679 3718 3679 3679 3679 3679 3679 3679 3679 3679 3679 3679 3679 3679 3718 3718 3718 3718 3718 3718 3718 3718 3718 3718 3718 3718 3718 3718 3718 3718 3718 3718 3718 3718 3718 3718 3718 3718 3718 3718 3718 3718 3759 3759 3759 3759 3800 3800 3800 3800 3800 3800 3759 3759 3759 3759 3759 3759 3759 3759 3759 3759 3759 3759 3759 3759 3759 3718 3718 3718 3759 3759 3759 3800 3759 3800 3800 3800 3800 3800 3800 3800 3800 3800 3800 3800 3800 3800 3800 3800 3800 3800 3800 3800 3800 3800 3800 3800 3842 3842 3842 3842 3842 3842 3842 3842 3842 3842 3842 3800 3842 3842 3842 3842 3842 3885 3885 3885 3885 3885 3885 3885 3885 3885 3885 3842 3842 3842 3842 3842 3885 3885 3885 3885 3930 3930 3930 3930 661 663 664 665 664 664 665 667 668 669 669 669 670 670 672 673 673 674 674 676 676 676 677 677 678 678 680 681 681 681 681 682 684 684 685 3975 3975 3975 3975 3975 3975 3975 3975 3975 3930 3975 3975 3975 3975 3975 3975 3975 3975 3975 3975 3975 3975 0 0 0 0 0 0 0 0 0 0 0 0 0 0 3885 3930 3930 3930 3930 3930 3930 3930 3930 3930 3930 3930 3930 3975 3975 3930 3930 3975 3930 3975 3930 3930 3930 3885 3885 3885 3885 3885 3930 3930 3930 3930 3930 3930 3930 3930 3930 3930 3930 3930 3930 3930 3930 3930 3930 3930 3885 3885 3885 3885 3885 3885 3885 3885 3885 3885 3885 3885 3930 3930 3930 3930 3930 3930 3930 3930 3930 3930 3930 3975 3930 3930 3930 3930 3930 3930 3930 3930 3930 3930 3930 3930 3930 3930 3885 3885 3885 3930 3930 3885 3930 3930 3930 3885 3885 3885 3930 3930 3930 3930 3930 3930 3930 3930 3930 3930 3930 3930 3975 3975 3975 3975 3975 3930 3930 3975 3975 3930 3930 3930 3975 3975 3930 3975 3975 3975 3930 3885 3885 3885 3885 3885 3842 3885 3885 3885 3930 3930 3975 3975 3930 3975 3975 3930 3975 3975 3975 3975 3975 3930 3930 3930 3930 3885 3885 3930 3930 3930 3975 3975 3975 3930 3975 3975 3975 3975 3975 4021 4021 4021 4021 4021 4021 4021 4021 4021 3975 3975 3975 3975 3975 3975 3975 3975 3975 3975 3975 3930 3885 3885 3842 3842 3842 3800 3759 3800 3800 3759 3759 3718 3718 3718 3718 3640 3679 3679 3679 3679 3679 3679 3640 3640 3602 3602 3528 3528 3528 3493 3493 3458 3458 3458 3458 3390 3390 3390 3390 3357 3357 3357 3357 3324 3324 3293 3293 3293 3262 3262 3262 3262 3231 3231 3231 3201 3231 3201 3201 3201 3201 3201 3201 3201 3143 3172
    0 0 0 0 0 0 0 0 0 0 0 0 0 0 0 0 0 0 0 0 0 0 0 0 0 0 0 0 0 0 0 0 0 0 0 0 0 0 0 0 0 0 0 0 0 0 0 0 0 0 0 0 0 0 0 0 0 0 0 0 0 0 0 0 0 0 0 0 0 0 0 0 0 0 0 0 0 0 0 0 0 0 0 0 0 0 0 0 0 0 0 0 0 0 0 0 0 2187 2201 2201 2201 2201 2201 2201 2215 2215 2215 2230 2244 2244 2259 2259 2259 2259 2259 2259 2259 0 0 0 0 0 0 0 2680 2680 2680 2680 2680 2680 2680 3640 3640 3640 3640 3640 3679 3679 3679 3640 3640 3640 3679 3679 3679 3679 3679 3679 3679 3640 3640 3640 3640 3640 3640 3640 3679 3679 3679 3679 3679 3679 3679 3679 3640 3679 3640 3640 3640 3679 3679 3679 3679 3679 3679 3679 3679 3679 3679 3679 3679 3679 3679 3679 3679 3679 3679 3679 3679 3679 3679 3679 3718 3679 3718 3718 3718 3718 3718 3718 3718 3718 3718 3718 3718 3718 3718 3718 3718 3718 3718 3718 3718 3718 3718 3718 3718 3718 3718 3718 3718 3759 3759 3759 3800 3759 3800 3800 3800 3800 3759 3759 3759 3759 3759 3759 3759 3759 3759 3759 3759 3759 3759 3759 3759 3718 3718 3759 3759 3759 3759 3759 3800 3800 3800 3800 3800 3800 3800 3800 3800 3800 3800 3800 3800 3800 3800 3800 3800 3800 3800 3800 3800 3800 3842 3842 3842 3842 3842 3842 3842 3842 3842 3842 3800 3800 3842 3842 3842 3842 3842 3842 3842 3885 3885 3885 3885 3885 3885 3885 3885 3885 3842 3842 3842 3842 3842 3885 3885 3885 3885 3930 3885 3930 3930 661 663 664 664 663 664 664 665 667 668 669 669 669 670 670 672 673 674 674 676 676 676 676 677 678 678 680 680 681 681 681 682 682 684 684 685 684 685 3975 3975 3975 3975 3975 3975 3975 3975 3975 3975 3975 3975 3975 3975 3975 3975 4021 3975 0 0 0 0 0 0 0 0 0 0 0 0 0 0 0 0 3885 3930 3975 3975 3975 3930 3975 3975 3975 3930 3930 3975 3975 3975 3930 3975 3975 3975 3975 3975 3930 3930 3885 3885 3885 3885 3885 3930 3930 3930 3930 3930 3930 3930 3930 3930 3930 3930 3930 3930 3930 3930 3930 3930 3930 3885 3885 3885 3885 3885 3885 3885 3885 3885 3885 3885 3885 3885 3885 3930 3885 3930 3930 3930 3930 3930 3930 3930 3975 3930 3930 3930 3930 3930 3930 3930 3930 3930 3930 3885 3930 3930 3930 3885 3885 3885 3930 3930 3930 3930 3930 3930 3885 3885 3930 3930 3930 3930 3930 3930 3930 3930 3930 3930 3930 3930 3930 3975 3975 3975 3975 3975 3930 3930 3975 3975 3930 3930 3930 3930 3930 3930 3930 3930 3930 3930 3885 3885 3885 3885 3885 3842 3885 3885 3930 3930 3975 3975 3975 3975 3975 3975 3975 3975 3975 3975 3930 3975 3930 3930 3930 3930 3885 3885 3930 3930 3930 3975 3975 3975 3975 3975 3975 3975 3975 4021 4021 4021 4021 4021 4021 4021 4021 4021 4021 3975 3975 3975 3975 3975 3975 3975 3975 3975 3975 3930 3930 3885 3885 3842 3842 3842 3842 3800 3800 3842 3800 3759 3759 3759 3759 3718 3679 3679 3679 3679 3718 3679 3679 3640 3640 3602 3565 3528 3528 3528 3528 3493 3493 3493 3458 3458 3390 3390 3390 3390 3357 3357 3357 3357 3357 3324 3324 3293 3293 3262 3262 3262 3262 3231 3231 3231 3201 3231 3201 3201 3201 3201 3201 3201 3201 3143 3143
    0 0 0 0 0 0 0 0 0 0 0 0 0 0 0 0 0 0 0 0 0 0 0 0 0 0 0 0 0 0 0 0 0 0 0 0 0 0 0 0 0 0 0 0 0 0 0 0 0 0 0 0 0 0 0 0 0 0 0 0 0 0 0 0 0 0 0 0 0 0 0 0 0 0 0 0 0 0 0 0 0 0 0 0 0 0 0 0 0 0 0 0 0 0 0 0 0 2187 2187 2201 2201 2201 2201 2201 2215 2215 2215 2230 2244 2244 2259 2259 2259 2259 2259 2259 2259 0 0 0 0 0 0 0 2680 2680 2680 2680 2680 2680 2680 3602 3602 3602 3640 3640 3640 3679 3679 3640 3640 3640 3679 3679 3679 3679 3679 3679 3640 3640 3640 3640 3640 3640 3640 3640 3679 3679 3679 3679 3679 3679 3679 3640 3640 3640 3640 3640 3640 3679 3679 3679 3679 3679 3679 3679 3679 3679 3679 3679 3679 3679 3679 3679 3679 3679 3679 3679 3679 3679 3679 3679 3679 3679 3718 3718 3718 3718 3718 3718 3718 3718 3718 3718 3718 3718 3718 3718 3718 3718 3718 3718 3718 3718 3718 3718 3718 3718 3718 3718 3718 3718 3759 3759 3759 3759 3800 3800 3800 3800 3759 3759 3759 3759 3759 3759 3759 3759 3759 3759 3718 3759 3759 3759 3759 3718 3718 3759 3759 3759 3759 3759 3759 3800 3800 3800 3800 3800 3800 3800 3800 3800 3800 3800 3800 3800 3800 3800 3800 3800 3800 3800 3800 3800 3842 3842 3842 3842 3842 3842 3842 3842 3842 3842 3800 3800 3842 3842 3842 3842 3842 3842 3842 3842 3885 3842 3885 3842 3842 3842 3842 3885 3842 3842 3842 3842 3842 3885 3885 3885 3885 3885 3885 3885 3930 661 663 663 664 663 663 664 665 665 667 668 668 669 669 670 670 672 673 674 674 674 676 676 677 677 678 678 680 680 681 681 681 682 682 684 685 685 685 686 686 685 3975 3975 3975 3975 3975 3975 3975 4021 3975 3975 3975 3975 4021 4021 0 0 0 0 0 0 0 0 0 0 0 0 0 0 0 0 0 0 0 0 0 0 3930 0 0 0 0 0 0 0 0 0 3930 3975 3975 3975 3975 3975 3930 3885 3885 3885 3930 3930 3930 3930 3930 3930 3930 3930 3930 3930 3930 3930 3930 3930 3930 3930 3930 3930 3930 3885 3885 3885 3885 3885 3885 3885 3885 3885 3885 3885 3885 3885 3885 3930 3930 3930 3930 3930 3930 3930 3930 3930 3930 3930 3930 3930 3930 3930 3930 3930 3885 3930 3930 3930 3885 3930 3930 3930 3930 3930 3930 3930 3930 3930 3930 3930 3930 3885 3885 3930 3930 3930 3930 3930 3930 3930 3930 3930 3930 3930 3975 3930 3975 3975 3975 3975 3975 3930 3975 3975 3975 3975 3930 3885 3930 3930 3885 3885 3885 3885 3885 3885 3885 3885 3885 3885 3885 3885 3885 3930 3975 4021 4021 4021 4021 3975 3975 3975 3930 3975 3930 3930 3930 3930 3885 3885 3885 3885 3885 3930 3930 3930 3930 3975 3975 3975 3975 3975 3975 4021 4021 4021 4021 4021 4021 4021 4021 4021 4021 3975 3975 3975 3975 3975 3975 3975 3975 3975 3975 3975 3975 3930 3885 3885 3842 3842 3842 3800 3800 3800 3842 3800 3800 3759 3759 3800 3759 3679 3679 3679 3679 3718 3679 3640 3640 3602 3565 3528 3528 3528 3528 3493 3493 3493 3493 3458 3423 3390 3390 3390 3390 3390 3390 3357 3357 3357 3357 3324 3324 3293 3262 3262 3262 3262 3262 3231 3231 3231 3231 3201 3201 3201 3231 3231 3201 3201 3143 3143
    0 0 0 0 0 0 0 0 0 0 0 0 0 0 0 0 0 0 0 0 0 0 0 0 0 0 0 0 0 0 0 0 0 0 0 0 0 0 0 0 0 0 0 0 0 0 0 0 0 0 0 0 0 0 0 0 0 0 0 0 0 0 0 0 0 0 0 0 0 0 0 0 0 0 0 0 0 0 0 0 0 0 0 0 0 0 0 0 0 0 0 0 0 0 0 0 0 2187 2187 2201 2201 2201 2201 2201 2215 2215 2215 2230 2244 2244 2244 2259 2259 2259 2259 2259 2274 0 0 0 0 0 0 2680 2680 2680 2680 2680 2680 2659 2659 3602 3602 3602 3602 3640 3640 3679 3679 3640 3640 3640 3679 3679 3679 3679 3679 3679 3679 3679 3640 3640 3640 3640 3640 3640 3640 3679 3679 3679 3679 3679 3679 3679 3679 3679 3640 3640 3640 3679 3679 3679 3679 3640 3679 3679 3679 3679 3679 3679 3679 3718 3718 3679 3679 3679 3679 3679 3679 3679 3679 3679 3679 3679 3679 3718 3718 3718 3718 3718 3718 3718 3718 3718 3718 3718 3718 3718 3718 3718 3718 3718 3718 3718 3718 3679 3718 3718 3718 3718 3718 3718 3759 3759 3759 3759 3800 3800 3800 3759 3718 3718 3718 3759 3759 3759 3759 3759 3759 3759 3759 3759 3759 3759 3759 3759 3759 3759 3759 3759 3759 3759 3800 3800 3800 3800 3800 3800 3800 3800 3800 3800 3800 3800 3800 3800 3800 3800 3800 3800 3800 3800 3800 3800 3842 3842 3842 3842 3842 3800 3842 3800 3800 3800 3800 3800 3800 3842 3842 3842 3842 3842 3842 3842 3885 3842 3842 3842 3842 3842 3842 3885 3842 3842 3842 3842 3842 3842 3885 3842 3885 3885 3885 3885 3885 661 661 661 663 661 661 663 664 665 665 667 668 668 669 669 669 670 672 673 674 674 674 676 676 677 677 678 678 680 680 680 681 682 684 684 685 685 685 686 686 686 686 686 4021 4021 4021 3975 4021 4021 3975 4021 3975 693 695 696 696 698 0 0 0 0 0 0 0 0 0 0 0 0 0 0 0 0 0 0 0 0 0 0 0 0 0 0 0 0 0 0 0 0 0 0 3975 3975 3975 3930 3930 3885 3930 3930 3930 3930 3885 3930 3930 3930 3930 3930 3930 3930 3930 3930 3930 3930 3930 3930 3885 3885 3885 3885 3885 3885 3885 3885 3885 3885 3885 3885 3885 3885 3885 3930 3930 3930 3930 3930 3930 3930 3930 3930 3930 3930 3930 3930 3930 3930 3930 3885 3885 3885 3885 3885 3885 3885 3885 3885 3930 3930 3930 3930 3930 3930 3930 3930 3930 3930 3930 3930 3930 3930 3930 3930 3930 3930 3975 3930 3975 3975 3975 3930 3975 3975 3975 3975 3975 3930 3930 3975 3975 3975 3930 3885 3930 3930 3885 3885 3885 3885 3885 3885 3885 3885 3885 3885 3885 3885 3930 3975 4021 4021 4021 4021 4021 3975 3975 3930 3930 3930 3930 3885 3930 3930 3885 3930 3885 3885 3885 3930 3930 3930 3930 3975 3975 3975 4021 4021 4021 4021 4021 4021 4021 4021 4021 4021 4021 4021 4021 3975 3975 3975 3975 3975 3975 3975 3975 3975 3975 3975 3975 3930 3885 3885 3885 3885 3842 3842 3842 3842 3842 3842 3800 3800 3800 3800 3759 3679 3679 3679 3679 3679 3679 3640 3640 3602 3565 3528 3528 3528 3528 3493 3493 3493 3493 3458 3423 3390 3390 3390 3390 3390 3390 3390 3357 3357 3357 3324 3293 3293 3262 3262 3262 3262 3262 3231 3231 3231 3231 3231 3231 3201 3231 3201 3201 3172 3143 3143
    0 0 0 0 0 0 0 0 0 0 0 0 0 0 0 0 0 0 0 0 0 0 0 0 0 0 0 0 0 0 0 0 0 0 0 0 0 0 0 0 0 0 0 0 0 0 0 0 0 0 0 0 0 0 0 0 0 0 0 0 0 0 0 0 0 0 0 0 0 0 0 0 0 0 0 0 0 0 0 0 0 0 0 0 0 0 0 0 0 0 0 0 0 0 0 0 0 2187 2187 2187 2201 2201 2201 2201 2201 2215 2215 2215 2230 2244 2244 2259 2259 2259 2259 2259 2259 0 0 0 0 0 0 2680 2680 2680 2659 2680 2659 2659 2659 3602 3602 3602 3602 3602 3640 3640 3679 3640 3640 3640 3640 3679 3679 3679 3679 3679 3679 3679 3679 3679 3640 3640 3640 3640 3679 3679 3679 3679 3679 3679 3679 3679 3679 3679 3679 3640 3679 3679 3679 3679 3640 3640 3640 3640 3679 3679 3679 3679 3679 3718 3718 3679 3679 3679 3679 3679 3679 3679 3679 3679 3679 3679 3679 3718 3718 3718 3718 3718 3718 3718 3718 3718 3718 3718 3718 3718 3718 3718 3718 3718 3718 3679 3679 3679 3679 3679 3679 3718 3718 3718 3759 3759 3759 3759 3759 3759 3759 3759 3718 3718 3718 3759 3718 3718 3759 3718 3759 3759 3759 3759 3759 3759 3759 3759 3759 3759 3759 3759 3759 3759 3759 3759 3800 3800 3800 3800 3800 3800 3800 3800 3800 3800 3800 3800 3800 3800 3800 3800 3800 3800 3800 3800 3842 3842 3842 3842 3842 3800 3800 3800 3800 3800 3800 3800 3800 3842 3842 3842 3842 3842 3842 3842 3842 3842 3842 3842 3842 3842 3842 3842 3842 3842 3842 3842 3842 3842 3842 3842 3842 3842 3842 3842 3885 3885 3842 661 661 660 661 661 663 664 665 667 667 667 668 668 669 669 670 672 672 673 673 673 674 676 676 677 677 678 680 680 680 681 682 684 685 684 685 686 686 686 686 686 688 688 689 689 691 691 692 693 693 693 695 696 696 698 698 0 0 0 0 0 0 0 0 0 0 0 0 0 0 0 0 0 0 0 0 0 0 0 0 0 0 0 0 0 0 0 0 0 0 3975 3975 3930 3930 3975 3930 3930 3975 3930 3930 3930 3885 3930 3930 3930 3930 3930 3930 3930 3930 3930 3930 3930 3885 3885 3885 3885 3885 3885 3885 3885 3885 3885 3885 3885 3885 3885 3885 3930 3930 3930 3930 3930 3930 3930 3930 3930 3930 3930 3930 3930 3930 3930 3885 3885 3885 3885 3885 3885 3885 3885 3885 3885 3885 3885 3930 3930 3930 3930 3930 3930 3930 3930 3930 3930 3975 3975 3930 3930 3975 3975 4021 3975 3975 3975 3975 3975 3975 3975 3975 3975 3930 3885 3930 3930 3975 3975 3930 3885 3930 3930 3930 3930 3885 3885 3885 3885 3885 3885 3885 3930 3930 3930 3975 3975 4021 4021 4021 4021 4021 4021 3975 3975 3930 3930 3930 3885 3930 3930 3930 3930 3930 3885 3885 3930 3930 3930 3930 3975 3975 4021 4021 4021 4021 4021 4021 4021 4021 4021 4021 4021 4021 4021 4021 3975 3975 3975 3975 3975 3975 3975 3975 3975 4021 4021 3975 3930 3930 3885 3885 3885 3885 3842 3842 3842 3842 3800 3800 3800 3759 3800 3759 3718 3718 3718 3718 3679 3679 3640 3602 3565 3565 3528 3528 3528 3493 3493 3493 3493 3458 3458 3423 3390 3390 3390 3390 3390 3390 3390 3390 3357 3357 3357 3324 3293 3262 3262 3262 3262 3262 3231 3231 3231 3231 3231 3231 3201 3231 3201 3231 3172 3143 3143
    0 0 0 0 0 0 0 0 0 0 0 0 0 0 0 0 0 0 0 0 0 0 0 0 0 0 0 0 0 0 0 0 0 0 0 0 0 0 0 0 0 0 0 0 0 0 0 0 0 0 0 0 0 0 0 0 0 0 0 0 0 0 0 0 0 0 0 0 0 0 0 0 0 0 0 0 0 0 0 0 0 0 0 0 0 0 0 0 0 0 0 0 0 0 0 0 0 2187 2187 2187 2201 2201 2201 2201 2201 2215 2215 2215 2230 2230 2244 2259 2259 2259 2259 2259 2274 2259 2701 2701 2701 0 2680 2680 2680 2680 2659 2680 2659 2659 2659 2659 3602 3602 3602 3602 3602 3640 3679 3640 3640 3640 3640 3679 3679 3679 3640 3679 3679 3679 3679 3640 3640 3640 3640 3640 3679 3640 3679 3679 3679 3679 3679 3679 3679 3679 3640 3640 3640 3640 3640 3640 3640 3602 3640 3640 3640 3640 3679 3679 3679 3679 3718 3679 3679 3679 3679 3679 3679 3679 3679 3679 3679 3679 3679 3679 3679 3718 3718 3718 3718 3718 3718 3718 3718 3718 3718 3759 3718 3718 3718 3718 3718 3718 3679 3679 3679 3679 3718 3718 3718 3718 3718 3759 3759 3759 3759 3759 3759 3718 3718 3718 3718 3718 3718 3718 3759 3718 3759 3759 3759 3759 3759 3759 3759 3759 3759 3759 3759 3759 3718 3759 3759 3759 3759 3800 3800 3800 3800 3800 3800 3800 3800 3800 3800 3800 3800 3800 3800 3800 3800 3800 3800 3800 3800 3800 3842 3842 3800 3800 3800 3800 3800 3800 3800 3800 3800 3842 3842 3842 3842 3842 3842 3842 3842 3842 3842 3842 3842 3842 3842 3842 3842 3842 3842 3842 3842 3842 3842 3842 3842 3842 3842 3842 3885 3885 660 660 661 660 660 661 663 663 664 665 665 665 667 667 668 668 668 669 669 670 672 672 673 674 674 676 676 677 677 678 678 680 681 682 684 684 685 685 685 686 686 686 688 688 688 689 691 691 692 692 693 693 695 696 696 696 698 698 0 0 0 0 702 0 0 0 0 0 0 0 0 0 0 0 0 0 0 0 0 0 0 0 0 0 0 0 0 0 0 0 0 0 4021 3930 3930 0 3975 3975 0 0 0 3885 3885 3885 3885 3885 3930 3930 3930 3930 3930 3930 3930 3930 3885 3885 3885 3885 3885 3885 3885 3885 3885 3885 3885 3885 3885 3885 3930 3930 3930 3930 3930 3930 3930 3930 3930 3930 3930 3930 3930 3930 3930 3930 3885 3885 3885 3885 3885 3885 3885 3885 3885 3885 3885 3885 3930 3930 3930 3930 3930 3930 3930 3930 3930 3930 3975 3975 3975 3930 3975 3975 4021 3975 3975 3975 3975 3975 4021 3975 3930 3930 3930 3885 3930 3930 3975 3975 3930 3930 3930 3975 3930 3930 3885 3885 3930 3930 3885 3885 3930 3930 3975 3975 4021 4021 4021 4021 4021 4021 4021 3975 3930 3930 3930 3930 3885 3885 3885 3885 3930 3930 3930 3885 3930 3930 3930 3930 3930 3975 3975 4021 4021 4021 4021 4021 4021 4021 4021 4021 4021 4021 4021 4021 4021 3975 3975 3975 3975 3975 3975 3975 3975 3975 4021 4021 3975 3975 3930 3885 3885 3885 3885 3842 3842 3842 3842 3800 3800 3800 3759 3759 3759 3718 3718 3679 3679 3679 3679 3640 3602 3565 3528 3528 3528 3493 3493 3493 3493 3458 3423 3423 3423 3390 3390 3390 3390 3423 3390 3390 3390 3357 3357 3357 3293 3293 3262 3262 3262 3262 3231 3231 3201 3201 3231 3201 3201 3201 3201 3201 3201 3172 3172 3172
    0 0 0 0 0 0 0 0 0 0 0 0 0 0 0 0 0 0 0 0 0 0 0 0 0 0 0 0 0 0 0 0 0 0 0 0 0 0 0 0 0 0 0 0 0 0 0 0 0 0 0 0 0 0 0 0 0 0 0 0 0 0 0 0 0 0 0 0 0 0 0 0 0 0 0 0 0 0 0 0 0 0 0 0 0 0 0 0 0 0 0 0 0 0 0 0 0 2174 2187 2187 2187 2201 2201 2201 2201 2201 2215 2215 2230 2230 2244 2259 2259 2259 2274 2274 2274 2274 2680 2701 2701 2701 2680 2680 2680 2680 2680 2680 2659 2659 2659 2680 3602 3602 3602 3602 3640 3640 3679 3602 3602 3640 3640 3640 3679 3640 3640 3679 3679 3679 3679 3640 3640 3640 3640 3640 3640 3640 3679 3679 3679 3679 3679 3679 3640 3640 3640 3640 3640 3640 3640 3640 3640 3640 3640 3679 3640 3679 3679 3679 3679 3679 3679 3679 3679 3679 3679 3679 3679 3679 3679 3679 3679 3679 3679 3679 3679 3718 3718 3718 3718 3718 3718 3718 3718 3718 3718 3718 3718 3718 3718 3718 3718 3718 3718 3679 3679 3679 3679 3718 3718 3718 3718 3759 3759 3718 3759 3759 3759 3718 3718 3718 3718 3718 3718 3718 3759 3759 3759 3759 3759 3759 3759 3800 3800 3800 3759 3759 3759 3759 3759 3759 3759 3759 3759 3800 3800 3800 3800 3800 3800 3800 3800 3800 3800 3800 3800 3800 3800 3800 3800 3800 3800 3800 3800 3800 3800 3842 3800 3800 3800 3800 3800 3800 3800 3800 3800 3842 3842 3842 3842 3842 3842 3842 3842 3842 3842 3842 3842 3842 3842 3842 3842 3842 3842 3842 3842 3842 3842 3842 3842 3842 3842 3842 3885 3885 3885 660 660 659 660 660 661 663 664 664 663 664 665 665 665 667 667 667 667 669 669 670 670 672 673 673 674 674 674 677 677 678 680 681 682 682 684 685 685 685 685 686 686 688 688 689 691 691 692 692 693 693 693 695 695 696 696 698 698 699 700 700 700 700 702 0 0 0 0 0 0 0 0 0 0 0 0 0 0 0 0 0 0 0 0 0 0 0 0 0 0 0 0 0 0 0 0 0 0 0 0 0 3842 3800 3885 3885 3930 3930 3930 3930 3930 3930 3930 3930 3885 3885 3885 3885 3885 3885 3885 3885 3885 3885 3885 3885 3885 3885 3885 3930 3930 3930 3930 3930 3930 3930 3930 3930 3930 3930 3930 3930 3930 3885 3885 3885 3885 3885 3885 3930 3885 3885 3930 3930 3885 3930 3930 3930 3930 3930 3930 3930 3930 3930 3930 3930 3975 3975 3930 3930 3975 3975 4021 3975 3975 3975 3975 3975 3975 3975 3930 3930 3930 3885 3930 3930 3975 3975 3930 3930 3930 3930 3930 3930 3930 3930 3930 3930 3930 3930 3930 3975 3975 3975 4021 4021 4068 4068 4021 4021 4021 3975 3930 3930 3930 3885 3885 3885 3885 3885 3930 3930 3930 3930 3930 3930 3930 3930 3930 3930 3975 3975 4021 4021 4021 4021 4021 4021 4021 4021 4021 4021 4021 4021 4021 3975 3975 3975 3975 3975 3975 3975 3975 3975 3975 3975 3975 3930 3930 3885 3885 3885 3885 3842 3842 3842 3800 3800 3759 3718 3718 3759 3718 3718 3718 3718 3679 3679 3640 3602 3565 3565 3528 3528 3493 3493 3493 3493 3458 3458 3423 3423 3390 3390 3390 3390 3390 3390 3423 3390 3390 3357 3357 3357 3324 3293 3262 3262 3262 3262 3231 3231 3201 3201 3231 3201 3201 3172 3201 3172 3201 3172 3143 3143
    0 0 0 0 0 0 0 0 0 0 0 0 0 0 0 0 0 0 0 0 0 0 0 0 0 0 0 0 0 0 0 0 0 0 0 0 0 0 0 0 0 0 0 0 0 0 0 0 0 0 0 0 0 0 0 0 0 0 0 0 0 0 0 0 0 0 0 0 0 0 0 0 0 0 0 0 0 0 0 0 0 0 0 0 0 0 0 0 0 0 0 0 0 0 0 0 0 2174 2174 2187 2187 2187 2201 2201 2201 2201 2215 2215 2215 2230 2244 2259 2259 2259 2259 2274 2259 2244 2701 2701 2701 2701 2701 2680 2680 2680 2680 2680 2680 2680 2680 2701 3602 3602 3602 3602 3640 3640 3679 3602 3602 3602 3640 3640 3640 3640 3640 3640 3679 3679 3679 3679 3640 3640 3640 3640 3640 3640 3679 3679 3679 3679 3679 3679 3679 3640 3640 3640 3640 3640 3640 3640 3602 3602 3640 3640 3640 3640 3679 3679 3679 3679 3679 3679 3679 3679 3679 3679 3679 3679 3679 3679 3679 3679 3679 3679 3679 3679 3718 3718 3718 3718 3718 3718 3718 3718 3718 3718 3718 3718 3718 3718 3718 3718 3718 3718 3718 3718 3718 3718 3718 3718 3718 3759 3759 3718 3759 3759 3759 3718 3718 3679 3718 3718 3718 3718 3718 3718 3759 3759 3759 3759 3800 3800 3800 3800 3800 3759 3800 3800 3759 3718 3759 3759 3759 3800 3800 3800 3800 3800 3800 3800 3800 3800 3800 3800 3800 3800 3800 3800 3800 3800 3800 3800 3800 3800 3800 3800 3800 3800 3800 3800 3800 3800 3800 3800 3800 3842 3842 3842 3800 3842 3800 3842 3842 3842 3842 3842 3842 3842 3842 3842 3842 3842 3842 3842 3842 3842 3842 3842 3842 3842 3842 3842 3885 3885 658 659 659 659 659 660 660 661 663 661 661 661 663 664 664 665 665 665 667 668 668 669 669 670 670 670 672 672 673 674 676 676 677 678 680 680 681 684 684 684 685 685 686 686 688 689 689 691 691 692 692 693 693 695 695 696 696 696 698 699 700 700 700 700 702 702 702 0 0 0 0 0 0 0 0 0 0 0 0 0 0 0 0 0 0 0 0 0 0 0 0 0 0 0 0 0 0 0 0 0 0 0 0 3800 3842 3885 3930 3930 3975 3930 3930 3930 3975 3930 3930 3885 3885 3885 3885 3885 3885 3885 3885 3885 3885 3885 3885 3885 3885 3885 3930 3885 3885 3930 3885 3930 3930 3930 3930 3930 3930 3885 3930 3885 3885 3885 3885 3885 3885 3930 3885 3885 3885 3885 3930 3930 3930 3930 3930 3930 3930 3930 3930 3930 3930 3930 3975 3975 3930 3975 3975 4021 4021 3975 3975 3975 3975 3930 3975 3930 3930 3930 3930 3885 3885 3930 3930 3930 3930 3930 3930 3930 3930 3930 3930 3930 3930 3930 3930 3930 3930 3975 3975 3975 4021 4021 4068 4021 4021 4021 3975 3975 3930 3930 3885 3885 3885 3885 3885 3885 3885 3930 3930 3930 3930 3930 3930 3930 3930 3975 3975 4021 4021 4021 4021 4021 4021 4021 4021 4021 4021 4021 4021 4021 4021 3975 3975 3975 3975 3975 3975 3975 3975 3975 4021 4021 3975 3975 3930 3885 3885 3885 3885 3842 3842 3842 3800 3800 3800 3759 3759 3759 3718 3679 3718 3679 3679 3640 3640 3565 3565 3528 3528 3528 3493 3493 3493 3458 3458 3423 3423 3423 3390 3390 3390 3390 3390 3390 3390 3390 3390 3357 3357 3324 3293 3293 3262 3262 3262 3262 3231 3231 3201 3231 3231 3201 3201 3201 3201 3201 3201 3172 3172 3172
    0 0 0 0 0 0 0 0 0 0 0 0 0 0 0 0 0 0 0 0 0 0 0 0 0 0 0 0 0 0 0 0 0 0 0 0 0 0 0 0 0 0 0 0 0 0 0 0 0 0 0 0 0 0 0 0 0 0 0 0 0 0 0 0 0 0 0 0 0 0 0 0 0 0 0 0 0 0 0 0 0 0 0 0 0 0 0 0 0 0 0 0 0 0 0 0 0 2174 2174 2187 2187 2187 2201 2201 2201 2201 2215 2215 2215 2230 2244 2259 2259 2259 2259 2274 2274 2259 2701 2701 2701 2701 2701 2680 2680 2680 2680 2680 2680 2680 2680 2701 3602 3602 3602 3602 3640 3640 3640 3602 3602 3602 3602 3602 3640 3640 3640 3640 3679 3679 3679 3679 3640 3640 3640 3640 3640 3640 3640 3640 3679 3679 3679 3679 3679 3679 3679 3640 3640 3640 3640 3640 3602 3602 3640 3679 3640 3679 3679 3679 3679 3679 3718 3679 3679 3679 3679 3679 3679 3679 3679 3679 3679 3679 3679 3679 3679 3718 3718 3718 3718 3679 3679 3679 3679 3679 3718 3718 3718 3718 3718 3718 3718 3718 3718 3718 3718 3718 3718 3718 3718 3718 3718 3759 3718 3718 3759 3759 3759 3718 3718 3679 3718 3718 3718 3718 3718 3718 3718 3759 3759 3718 3759 3759 3759 3800 3759 3759 3759 3800 3759 3759 3759 3759 3759 3759 3759 3759 3759 3759 3759 3800 3759 3759 3759 3800 3800 3800 3800 3800 3800 3800 3800 3800 3800 3800 3800 3800 3800 3800 3800 3800 3800 3800 3800 3800 3800 3842 3842 3842 3800 3842 3800 3842 3842 3800 3842 3800 3842 3800 3842 3842 3842 3842 3842 3842 3842 3842 3842 3842 3842 3842 3842 3842 3885 3885 656 658 658 658 658 659 659 660 661 661 661 661 661 663 663 664 664 665 665 665 665 667 668 668 669 669 670 670 672 673 674 676 676 677 678 678 680 681 682 684 684 685 685 686 686 688 688 689 691 691 692 692 693 695 695 695 695 696 696 698 699 699 700 700 702 702 702 703 703 0 0 0 0 0 0 0 0 0 0 0 0 0 0 0 0 0 0 0 0 0 0 0 0 0 0 0 0 0 0 0 0 0 0 3759 3759 0 3885 3930 0 3885 3930 3930 3930 3930 3930 3930 3885 3930 3930 3885 3885 3885 3885 3885 3885 3885 3885 3885 3885 3885 3885 3885 3885 3885 3885 3885 3930 3930 3930 3930 3930 3930 3930 3930 3930 3885 3885 3885 3885 3885 3885 3885 3885 3885 3885 3885 3930 3930 3930 3930 3930 3930 3930 3930 3930 3930 3930 3930 3930 3975 3975 4021 4021 4021 3975 3975 3975 3930 3975 3930 3930 3930 3885 3885 3885 3930 3930 3930 3930 3930 3930 3930 3930 3930 3930 3930 3930 3930 3930 3930 3930 3975 3975 3975 4021 4021 4021 4021 4021 3975 3975 3975 3930 3885 3885 3885 3885 3885 3885 3885 3885 3885 3930 3930 3930 3975 3930 3930 3975 3975 3975 4021 4021 4021 4021 4021 3975 3975 4021 4021 4021 4021 4021 4021 4021 3975 3975 3975 3975 3975 3975 3975 3975 3975 3975 3975 3975 3930 3930 3885 3885 3885 3885 3842 3842 3842 3842 3800 3800 3800 3800 3759 3759 3679 3679 3679 3640 3640 3602 3565 3565 3528 3528 3528 3493 3493 3493 3458 3458 3423 3423 3423 3390 3390 3390 3390 3390 3390 3390 3390 3390 3390 3390 3357 3324 3293 3262 3262 3262 3262 3231 3231 3231 3231 3231 3201 3201 3201 3201 3172 3172 3172 3143 3172
    0 0 0 0 0 0 0 0 0 0 0 0 0 0 0 0 0 0 0 0 0 0 0 0 0 0 0 0 0 0 0 0 0 0 0 0 0 0 0 0 0 0 0 0 0 0 0 0 0 0 0 0 0 0 0 0 0 0 0 0 0 0 0 0 0 0 0 0 0 0 0 0 0 0 0 0 0 0 0 0 0 0 0 0 0 0 0 0 0 0 0 0 0 0 0 0 0 2174 2187 2187 2187 2201 2201 2201 2215 2215 2215 2215 2215 2230 2244 2244 2259 2259 2259 2274 2274 2259 2701 2701 2701 2701 2701 2701 2680 2680 2680 2680 2680 2680 2680 2701 3602 3602 3602 3602 3602 3640 3640 3602 3602 3602 3602 3602 3602 3602 3602 3640 3679 3679 3679 3679 3640 3640 3640 3640 3640 3640 3640 3640 3679 3679 3679 3679 3679 3679 3679 3640 3640 3640 3640 3640 3602 3640 3640 3640 3679 3679 3679 3679 3679 3679 3718 3679 3679 3679 3679 3679 3679 3679 3679 3679 3679 3679 3679 3679 3679 3679 3718 3718 3679 3679 3679 3679 3679 3679 3679 3718 3718 3718 3718 3718 3718 3718 3718 3679 3679 3718 3718 3718 3718 3718 3718 3718 3718 3718 3718 3718 3718 3679 3679 3679 3718 3718 3679 3718 3718 3718 3718 3718 3718 3718 3759 3759 3759 3800 3759 3759 3759 3800 3759 3759 3759 3759 3759 3759 3759 3759 3759 3759 3800 3800 3800 3800 3800 3800 3800 3800 3800 3759 3759 3800 3800 3800 3800 3800 3800 3800 3800 3800 3800 3800 3800 3800 3800 3800 3800 3842 3842 3842 3842 3842 3800 3842 3842 3800 3842 3800 3800 3800 3800 3800 3842 3842 3842 3842 3842 3842 3842 3842 3842 3842 3842 3842 3842 3842 656 656 658 656 656 658 659 660 660 660 660 660 661 663 663 664 664 664 665 665 665 665 667 668 668 669 669 670 670 672 673 674 676 676 676 677 677 678 680 681 682 684 684 686 686 686 688 688 689 691 691 692 693 695 695 695 695 696 696 698 699 699 699 700 700 700 702 702 700 702 0 0 0 0 0 0 0 0 0 0 0 0 0 0 0 0 0 0 0 0 0 0 0 0 0 0 0 0 0 0 0 0 0 3718 3759 0 0 0 0 0 3930 3930 3975 0 0 0 3930 3930 3930 3885 3885 3885 3885 3885 3885 3885 3842 3885 3885 3885 3885 3885 3885 3885 3885 3885 3885 3930 3930 3930 3930 3885 3885 3930 3885 3885 3885 3930 3885 3885 3885 3885 3885 3885 3885 3885 3930 3930 3930 3930 3930 3930 3930 3930 3930 3930 3930 3930 3930 3975 3975 3975 4021 3975 3975 3975 3930 3930 3930 3930 3885 3885 3885 3885 3885 3885 3930 3930 3930 3930 3930 3930 3885 3930 3885 3930 3930 3930 3930 3930 3930 3975 3975 3975 3975 4021 4021 4021 4021 3930 3930 3930 3885 3885 3885 3885 3885 3885 3885 3885 3885 3885 3885 3930 3930 3930 3975 3930 3975 3975 4021 4021 4021 4021 4021 4021 3975 3975 3975 3975 3975 3975 3975 4021 4021 3975 3975 3930 3930 3975 3975 3975 3975 3975 3975 3975 3975 3930 3930 3885 3885 3885 3885 3842 3842 3842 3800 3800 3800 3759 3759 3718 3718 3679 3679 3640 3640 3640 3602 3602 3565 3565 3528 3528 3493 3493 3493 3458 3493 3458 3423 3423 3423 3390 3390 3390 3390 3390 3390 3390 3390 3390 3357 3324 3293 3293 3262 3262 3262 3262 3231 3231 3231 3231 3231 3231 3231 3172 3201 3172 3172 3143 3143 3143
    0 0 0 0 0 0 0 0 0 0 0 0 0 0 0 0 0 0 0 0 0 0 0 0 0 0 0 0 0 0 0 0 0 0 0 0 0 0 0 0 0 0 0 0 0 0 0 0 0 0 0 0 0 0 0 0 0 0 0 0 0 0 0 0 0 0 0 0 0 0 0 0 0 0 0 0 0 0 0 0 0 0 0 0 0 0 0 0 0 0 0 0 0 0 0 0 0 2187 2187 2187 2187 2187 2201 2201 2201 2201 2215 2215 2215 2230 2244 2244 2259 2259 2259 2274 2274 2259 2701 2701 2701 2701 2701 2680 2680 2680 2680 2680 2680 2701 2701 2701 3602 3602 3602 3602 3602 3640 3640 3602 3565 3565 3602 3602 3640 3602 3602 3640 3679 3679 3679 3679 3640 3640 3640 3640 3640 3640 3640 3640 3640 3679 3679 3679 3679 3679 3679 3640 3640 3640 3602 3602 3602 3640 3640 3679 3679 3679 3679 3679 3679 3679 3679 3679 3679 3679 3679 3679 3679 3679 3679 3679 3679 3679 3679 3679 3679 3679 3679 3679 3679 3679 3679 3679 3679 3679 3679 3718 3718 3718 3718 3718 3718 3718 3718 3718 3718 3718 3718 3718 3718 3718 3718 3718 3718 3718 3718 3718 3718 3679 3679 3679 3679 3679 3679 3679 3679 3718 3718 3718 3718 3718 3759 3759 3759 3800 3759 3759 3759 3800 3759 3718 3759 3759 3759 3759 3759 3759 3759 3759 3759 3800 3800 3800 3800 3800 3800 3800 3800 3759 3759 3800 3800 3800 3800 3800 3800 3800 3800 3800 3800 3800 3800 3800 3800 3800 3800 3800 3800 3800 3800 3842 3800 3842 3842 3800 3800 3800 3800 3800 3800 3800 3800 3842 3842 3842 3842 3842 3842 3842 3842 3842 3842 3842 3842 3885 656 656 656 655 656 656 658 659 660 660 660 660 660 661 661 663 663 664 664 664 665 665 667 667 668 668 669 669 670 670 672 672 674 674 676 676 676 677 678 678 680 682 682 685 685 686 686 686 688 689 691 691 692 693 693 695 695 696 696 698 698 698 698 699 699 700 700 700 702 702 703 705 706 706 708 708 708 0 0 0 0 0 0 0 0 0 0 0 0 0 0 0 0 0 0 0 0 0 0 0 0 0 0 0 0 0 0 0 0 0 0 3975 3975 0 0 0 3885 3930 3930 3930 3885 3885 3885 3885 3885 3885 3842 3842 3885 3885 3885 3885 3885 3885 3885 3885 3885 3885 3930 3885 3885 3885 3885 3885 3885 3885 3885 3885 3885 3885 3885 3885 3885 3885 3885 3885 3885 3885 3930 3930 3930 3930 3930 3930 3930 3930 3930 3930 3930 3930 3975 3975 3975 3930 3930 3930 3930 3930 3930 3930 3885 3885 3885 3885 3885 3885 3885 3885 3930 3885 3930 3930 3885 3930 3930 3930 3930 3930 3930 3975 3930 3975 3975 3930 3975 3975 3975 3930 3930 3930 3930 3930 3930 3885 3885 3885 3885 3885 3885 3885 3885 3885 3885 3930 3930 3930 3975 3930 3975 3975 3975 4021 4021 4021 3975 4021 3975 3930 3975 3975 3975 3975 3975 3975 4021 3975 3975 3975 3930 3975 3975 3975 3975 3975 3975 3975 3975 3930 3930 3885 3885 3885 3885 3842 3842 3842 3800 3800 3800 3718 3718 3718 3718 3640 3640 3640 3602 3602 3565 3565 3565 3565 3528 3528 3528 3493 3493 3493 3493 3458 3458 3458 3423 3390 3390 3390 3390 3390 3390 3390 3390 3390 3390 3324 3293 3293 3262 3262 3262 3262 3231 3231 3231 3231 3231 3201 3201 3172 3172 3143 3143 3143 3143 3143
    0 0 0 0 0 0 0 0 0 0 0 0 0 0 0 0 0 0 0 0 0 0 0 0 0 0 0 0 0 0 0 0 0 0 0 0 0 0 0 0 0 0 0 0 0 0 0 0 0 0 0 0 0 0 0 0 0 0 0 0 0 0 0 0 0 0 0 0 0 0 0 0 0 0 0 0 0 0 0 0 0 0 0 0 0 0 0 0 0 0 0 0 0 0 0 2160 2174 2174 2187 2187 2187 2187 2201 2201 2201 2201 2201 2215 2215 2230 2230 2244 2244 2259 2274 2274 2274 2701 2701 2701 2701 2701 2701 2680 2680 2680 2680 2680 2701 2701 2701 2722 3602 3602 3602 3602 3602 3602 3602 3565 3565 3565 3602 3602 3640 3602 3602 3640 3640 3640 3640 3640 3640 3640 3602 3602 3602 3602 3602 3640 3640 3679 3679 3679 3679 3679 3640 3640 3602 3602 3602 3602 3602 3640 3640 3679 3679 3679 3679 3679 3679 3679 3679 3679 3679 3679 3679 3679 3679 3679 3679 3679 3679 3679 3679 3679 3679 3679 3679 3679 3679 3679 3679 3679 3679 3679 3679 3718 3718 3718 3718 3718 3718 3718 3718 3718 3718 3718 3718 3718 3718 3718 3718 3718 3718 3718 3718 3718 3718 3679 3679 3679 3718 3679 3679 3679 3679 3718 3718 3718 3718 3718 3759 3759 3759 3759 3759 3759 3759 3759 3759 3718 3718 3718 3759 3759 3759 3759 3759 3759 3759 3759 3759 3759 3759 3759 3800 3800 3800 3800 3800 3800 3800 3800 3800 3800 3800 3800 3800 3800 3800 3800 3800 3800 3800 3800 3800 3800 3800 3800 3800 3800 3800 3800 3800 3800 3800 3800 3800 3800 3800 3800 3842 3842 3842 3842 3842 3842 3842 3842 3842 3842 3842 3842 3842 3885 655 655 656 655 655 655 656 658 658 658 659 659 660 660 661 661 663 663 663 664 664 665 665 665 667 668 668 668 669 670 670 672 673 673 674 674 676 676 677 677 678 680 681 684 684 685 685 686 686 688 689 691 692 692 693 693 695 696 696 696 698 698 698 699 699 700 700 702 702 703 703 705 705 706 708 708 709 709 709 0 0 0 0 0 0 0 0 0 0 0 0 0 0 0 0 0 0 0 0 0 0 0 0 0 0 0 0 0 0 0 0 0 0 0 0 0 0 0 0 3885 3842 3842 3842 3885 3885 3842 3842 3842 3885 3885 3885 3885 3885 3885 3885 3885 3885 3885 3930 3885 3885 3885 3885 3885 3885 3885 3885 3885 3885 3885 3885 3885 3885 3885 3885 3885 3885 3885 3930 3930 3930 3885 3930 3930 3885 3930 3885 3885 3930 3930 3930 3930 3930 3930 3930 3930 3930 3930 3930 3930 3930 3885 3885 3885 3885 3885 3885 3885 3885 3885 3885 3885 3885 3885 3930 3930 3930 3930 3930 3930 3930 3930 3930 3930 3930 3930 3930 3930 3930 3885 3930 3930 3930 3930 3930 3930 3885 3885 3885 3885 3885 3885 3885 3885 3930 3930 3975 3930 3975 3975 3975 4021 4021 3975 3975 3975 3975 3930 3975 3975 3975 3975 4021 4021 4021 3975 3975 3975 3975 3975 3975 3975 3975 3975 3975 3975 3975 3930 3930 3885 3885 3885 3885 3842 3842 3800 3800 3800 3800 3759 3718 3718 3679 3640 3602 3602 3565 3565 3565 3565 3528 3528 3528 3528 3528 3493 3493 3493 3493 3493 3458 3458 3423 3390 3390 3390 3390 3390 3390 3390 3390 3390 3390 3357 3293 3324 3293 3262 3262 3262 3231 3231 3231 3231 3231 3201 3201 3201 3172 3172 3143 3143 3143 3143
    0 0 0 0 0 0 0 0 0 0 0 0 0 0 0 0 0 0 0 0 0 0 0 0 0 0 0 0 0 0 0 0 0 0 0 0 0 0 0 0 0 0 0 0 0 0 0 0 0 0 0 0 0 0 0 0 0 0 0 0 0 0 0 0 0 0 0 0 0 0 0 0 0 0 0 0 0 0 0 0 0 0 0 0 0 0 0 0 0 0 0 0 0 0 2174 2174 2187 2187 2187 2187 2187 2187 2187 2201 2201 2201 2201 2215 2215 2230 2230 2244 2244 2259 2259 2274 2259 2722 2722 2701 2701 2701 2701 2680 2680 2701 2680 2680 2701 2701 2701 2722 3640 3602 3602 3602 3640 3602 3602 3565 3565 3565 3602 3602 3602 3602 3602 3640 3640 3640 3640 3640 3640 3602 3602 3602 3602 3640 3640 3640 3640 3679 3679 3679 3679 3679 3640 3640 3602 3602 3602 3602 3602 3640 3640 3679 3679 3679 3679 3679 3679 3679 3679 3640 3679 3640 3640 3640 3679 3679 3679 3679 3679 3679 3679 3679 3640 3679 3679 3679 3679 3679 3679 3679 3679 3679 3679 3718 3718 3718 3718 3718 3718 3718 3718 3718 3718 3718 3718 3718 3718 3718 3718 3718 3718 3718 3718 3718 3718 3679 3679 3718 3718 3679 3679 3679 3679 3718 3718 3718 3718 3718 3759 3759 3759 3759 3759 3759 3759 3759 3759 3718 3759 3759 3759 3759 3759 3759 3759 3759 3759 3759 3759 3759 3759 3759 3759 3759 3800 3759 3759 3800 3800 3800 3800 3800 3800 3800 3800 3800 3800 3800 3800 3800 3800 3800 3800 3800 3800 3800 3800 3800 3800 3800 3800 3800 3800 3800 3800 3800 3800 3800 3842 3842 3842 3842 3842 3842 3842 3842 3842 3842 3842 3842 3842 3885 654 654 655 654 654 654 655 655 656 656 658 659 659 660 660 661 661 663 663 663 664 664 665 665 667 667 667 668 669 669 669 670 672 673 673 674 674 676 676 676 677 678 680 681 682 684 684 685 686 686 688 689 691 692 692 692 693 695 695 696 696 696 698 698 699 699 700 700 702 702 703 705 705 706 706 708 708 709 709 709 709 0 0 0 0 0 0 0 0 0 0 0 0 0 0 0 0 0 0 0 0 0 0 0 0 0 0 0 0 0 0 0 0 0 0 0 0 0 0 0 3885 3885 3842 3842 3842 3842 3800 3842 3885 3885 3885 3885 3885 3885 3885 3885 3930 3885 3930 3885 3885 3885 3885 3885 3885 3885 3885 3885 3885 3885 3885 3885 3885 3885 3885 3885 3885 3930 3930 3930 3930 3885 3885 3885 3885 3885 3885 3885 3885 3930 3885 3930 3930 3930 3930 3930 3930 3930 3930 3930 3930 3885 3885 3885 3885 3885 3885 3885 3885 3930 3885 3885 3885 3885 3930 3930 3885 3885 3930 3930 3930 3930 3930 3885 3930 3930 3930 3930 3930 3885 3885 3930 3930 3930 3930 3885 3885 3885 3885 3885 3885 3885 3885 3885 3930 3975 3975 3975 3975 3975 3975 3975 3975 3975 3930 3975 3930 3930 3930 3930 3975 3975 3975 3975 3975 3975 3975 3975 3975 3975 3930 3975 3975 3975 3975 3975 3975 3930 3930 3885 3885 3885 3842 3842 3842 3800 3800 3800 3800 3759 3718 3718 3718 3640 3602 3602 3565 3565 3528 3565 3528 3528 3528 3528 3528 3528 3528 3493 3528 3493 3493 3493 3458 3423 3390 3390 3390 3390 3357 3390 3390 3390 3390 3357 3324 3324 3293 3293 3262 3262 3231 3231 3231 3231 3231 3231 3231 3201 3201 3172 3143 3143 3143 3143
    0 0 0 0 0 0 0 0 0 0 0 0 0 0 0 0 0 0 0 0 0 0 0 0 0 0 0 0 0 0 0 0 0 0 0 0 0 0 0 0 0 0 0 0 0 0 0 0 0 0 0 0 0 0 0 0 0 0 0 0 0 0 0 0 0 0 0 0 0 0 0 0 0 0 0 0 0 0 0 0 0 0 0 0 0 0 0 0 0 0 0 0 0 0 2160 2160 2174 2187 2187 2187 2187 2187 2187 2201 2201 2201 2201 2215 2215 2230 2230 2244 2244 2259 2259 2274 2274 2722 2722 2701 2701 2701 2701 2680 2680 2701 2680 2701 2701 2701 2701 3640 3640 3602 3602 3602 3602 3602 3602 3565 3565 3565 3602 3602 3602 3602 3602 3602 3640 3640 3640 3640 3602 3602 3602 3602 3602 3640 3640 3640 3640 3679 3679 3679 3679 3679 3640 3640 3640 3602 3602 3640 3640 3640 3679 3679 3679 3679 3679 3679 3679 3679 3679 3640 3640 3640 3640 3679 3679 3679 3679 3679 3679 3679 3679 3640 3640 3679 3679 3679 3679 3679 3679 3679 3679 3679 3679 3718 3718 3718 3718 3718 3718 3718 3718 3718 3718 3718 3718 3718 3718 3718 3718 3718 3718 3718 3718 3718 3718 3679 3718 3718 3718 3718 3679 3679 3718 3718 3718 3718 3718 3718 3759 3759 3759 3759 3759 3759 3759 3759 3759 3718 3759 3759 3759 3759 3759 3759 3759 3759 3759 3759 3759 3759 3759 3759 3759 3759 3759 3759 3759 3759 3800 3800 3800 3800 3800 3800 3800 3800 3800 3800 3800 3800 3800 3800 3800 3800 3800 3800 3800 3800 3800 3800 3800 3800 3800 3800 3800 3800 3800 3800 3842 3842 3842 3842 3842 3842 3842 3842 3842 3842 3842 3842 3842 3842 653 653 653 651 653 654 654 655 655 655 656 656 658 659 659 659 660 661 661 661 663 663 664 665 665 667 667 667 668 669 669 669 670 672 673 673 674 674 676 676 676 677 678 680 681 681 682 684 685 685 686 688 689 691 692 692 693 693 693 695 696 696 698 698 698 699 700 700 702 702 703 703 703 705 706 706 708 708 709 709 709 711 711 0 0 0 0 0 0 0 0 0 0 0 0 0 0 0 0 0 0 0 0 0 0 0 0 0 0 0 0 0 0 0 0 0 0 0 0 0 0 0 3842 3885 3800 3800 3800 3800 3842 3885 3885 3885 3885 3885 3885 3885 3885 3885 3885 3885 3885 3930 3885 3885 3885 3885 3885 3885 3885 3885 3885 3885 3885 3885 3885 3885 3930 3930 3930 3930 3930 3885 3885 3885 3885 3885 3885 3885 3885 3930 3885 3885 3930 3930 3930 3930 3885 3885 3885 3885 3885 3885 3885 3885 3885 3885 3885 3885 3885 3885 3885 3885 3885 3885 3885 3885 3885 3885 3885 3885 3885 3885 3885 3885 3885 3885 3885 3885 3885 3885 3885 3885 3885 3885 3885 3885 3885 3885 3885 3885 3885 3885 3885 3885 3930 3930 3975 3930 3975 3975 3975 3930 3975 3930 3930 3930 3930 3930 3930 3930 3930 3975 3975 3930 3975 3930 3930 3930 3930 3930 3930 3930 3975 3975 3930 3930 3930 3885 3885 3842 3885 3842 3842 3842 3842 3800 3800 3842 3800 3759 3759 3718 3718 3640 3602 3565 3528 3528 3528 3528 3528 3528 3528 3528 3528 3528 3528 3493 3528 3493 3493 3493 3458 3390 3390 3390 3390 3390 3357 3357 3390 3390 3390 3357 3357 3357 3324 3324 3262 3262 3262 3262 3262 3231 3231 3231 3231 3201 3201 3172 3143 3143 3143 3143
    0 0 0 0 0 0 0 0 0 0 0 0 0 0 0 0 0 0 0 0 0 0 0 0 0 0 0 0 0 0 0 0 0 0 0 0 0 0 0 0 0 0 0 0 0 0 0 0 0 0 0 0 0 0 0 0 0 0 0 0 0 0 0 0 0 0 0 0 0 0 0 0 0 0 0 0 0 0 0 0 0 0 0 0 0 0 0 0 0 0 0 0 0 0 2160 2174 2174 2187 2187 2187 2187 2187 2187 2201 2201 2201 2215 2215 2215 2230 2230 2244 2244 2244 2259 2259 2259 2259 2722 2722 2701 2701 2701 2680 2680 2680 2680 2701 2701 2701 3640 3640 3640 3602 3602 3602 3602 3602 3602 3565 3565 3602 3602 3602 3602 3602 3602 3602 3640 3640 3640 3640 3602 3602 3602 3602 3602 3602 3640 3640 3640 3679 3679 3679 3679 3679 3640 3640 3602 3602 3602 3640 3640 3640 3640 3679 3679 3679 3679 3679 3679 3679 3640 3640 3640 3640 3679 3679 3679 3679 3679 3679 3679 3679 3679 3679 3679 3679 3679 3679 3679 3679 3679 3679 3679 3679 3679 3679 3718 3718 3718 3718 3718 3718 3718 3718 3718 3718 3718 3718 3718 3718 3718 3718 3718 3718 3718 3718 3718 3679 3679 3718 3718 3718 3679 3679 3718 3718 3718 3718 3718 3718 3718 3759 3759 3759 3718 3718 3718 3759 3718 3718 3759 3759 3759 3759 3759 3718 3759 3759 3759 3759 3759 3759 3759 3759 3759 3759 3759 3759 3759 3759 3759 3800 3800 3800 3800 3759 3800 3800 3800 3800 3800 3800 3800 3800 3800 3800 3800 3800 3800 3800 3800 3800 3800 3800 3800 3800 3800 3800 3800 3800 3842 3842 3842 3842 3842 3842 3842 3842 3842 3842 3842 3842 3842 3842 651 651 651 651 651 653 654 654 655 655 655 655 656 656 658 659 659 660 660 660 661 661 664 664 664 665 665 665 667 668 668 669 669 670 672 672 673 674 674 674 676 676 677 678 680 681 681 682 684 684 686 686 688 691 691 692 692 692 692 693 695 695 696 696 698 698 698 699 699 700 702 703 703 703 705 706 708 708 709 709 709 711 712 712 712 713 713 715 715 716 718 721 721 0 0 0 0 0 0 0 0 0 0 0 0 0 0 0 0 0 0 0 0 0 0 0 0 0 0 0 0 0 0 0 0 0 3800 3800 0 3842 0 0 0 3842 0 0 0 3885 3930 3885 3930 3930 3885 3885 3885 3885 3885 3885 3885 3885 3885 3885 3885 3885 3885 3885 3885 3885 3885 3930 3885 3885 3885 3885 3885 3885 3885 3885 3885 3885 3885 3885 3885 3885 3885 3885 3885 3885 3885 3930 3930 3885 3885 3885 3885 3885 3885 3885 3885 3885 3885 3842 3842 3842 3885 3885 3885 3885 3885 3885 3885 3885 3885 3885 3885 3885 3885 3885 3885 3885 3885 3885 3885 3885 3885 3885 3885 3885 3885 3885 3885 3885 3885 3930 3930 3930 3975 3975 3975 3975 3930 3930 3930 3930 3930 3930 3885 3930 3930 3930 3930 3930 3930 3930 3930 3930 3885 3885 3930 3930 3930 3930 3930 3930 3930 3930 3930 3885 3885 3842 3885 3842 3842 3842 3842 3800 3800 3842 3800 3800 3759 3718 3718 3640 3602 3565 3528 3528 3528 3528 3528 3528 3528 3528 3528 3528 3528 3528 3528 3493 3493 3493 3423 3390 3390 3390 3390 3390 3357 3390 3390 3390 3390 3357 3357 3357 3324 3324 3293 3262 3262 3262 3262 3262 3231 3231 3231 3231 3231 3201 3172 3143 3143 3143
    0 0 0 0 0 0 0 0 0 0 0 0 0 0 0 0 0 0 0 0 0 0 0 0 0 0 0 0 0 0 0 0 0 0 0 0 0 0 0 0 0 0 0 0 0 0 0 0 0 0 0 0 0 0 0 0 0 0 0 0 0 0 0 0 0 0 0 0 0 0 0 0 0 0 0 0 0 0 0 0 0 0 0 0 0 0 0 0 0 0 0 0 0 2174 2160 2174 2174 2187 2187 2187 2187 2187 2201 2201 2201 2201 2215 2215 2215 2215 2230 2230 2244 2244 2244 2259 2259 2259 2722 2701 2680 2680 2680 2680 2680 2680 2680 2680 2701 2701 3679 3679 3679 3640 3602 3602 3602 3602 3602 3565 3565 3565 3565 3602 3602 3602 3602 3602 3602 3602 3602 3602 3602 3602 3565 3602 3602 3602 3602 3640 3640 3679 3679 3679 3679 3679 3640 3640 3602 3602 3602 3640 3640 3640 3640 3679 3679 3679 3679 3679 3640 3640 3640 3640 3640 3640 3679 3679 3679 3679 3679 3679 3679 3679 3679 3679 3679 3679 3679 3679 3679 3679 3679 3679 3679 3679 3679 3679 3679 3679 3718 3718 3718 3718 3679 3679 3679 3718 3718 3679 3679 3718 3718 3718 3718 3718 3718 3718 3718 3679 3679 3718 3718 3718 3718 3679 3718 3718 3718 3718 3679 3679 3718 3718 3718 3718 3718 3718 3718 3718 3718 3718 3718 3718 3718 3759 3718 3718 3718 3759 3718 3718 3718 3759 3759 3759 3759 3759 3759 3759 3759 3759 3800 3800 3800 3800 3800 3759 3800 3800 3800 3800 3800 3759 3800 3800 3800 3800 3800 3800 3800 3800 3800 3800 3800 3800 3800 3800 3800 3800 3800 3800 3800 3842 3842 3842 3842 3842 3842 3842 3842 3842 3842 3842 3842 3842 650 651 651 650 651 653 653 654 654 654 655 655 655 656 656 658 658 659 660 660 660 660 663 663 663 664 664 664 665 667 667 668 669 670 670 672 672 673 674 674 674 676 676 677 678 678 680 680 681 681 684 684 685 686 688 689 689 691 691 692 692 693 695 695 696 696 698 698 699 699 699 702 702 703 703 705 706 708 708 709 709 711 711 711 712 712 712 713 713 715 719 721 721 718 718 0 0 0 0 0 0 0 0 0 0 0 0 0 0 0 0 0 0 0 0 0 0 0 0 0 0 0 0 0 0 0 0 0 0 0 0 0 0 0 0 0 0 0 0 0 3930 3930 3930 3885 3842 3842 3885 3885 3885 3842 3885 3885 3885 3930 3885 3885 3885 3885 3885 3885 3885 3885 3885 3885 3885 3885 3885 3885 3885 3885 3885 3885 3885 3885 3885 3885 3885 3885 3885 3930 3930 3885 3930 3885 3885 3885 3885 3885 3885 3885 3885 3842 3842 3842 3885 3885 3885 3885 3885 3885 3885 3930 3885 3885 3885 3885 3885 3885 3885 3885 3885 3885 3885 3885 3885 3885 3885 3885 3885 3885 3885 3885 3930 3930 3930 3975 3975 3975 3975 3975 3930 3885 3885 3885 3885 3930 3885 3930 3930 3930 3930 3930 3930 3885 3930 3885 3885 3885 3885 3930 3930 3930 3930 3930 3930 3930 3930 3885 3885 3842 3885 3885 3842 3842 3800 3800 3800 3842 3800 3800 3759 3718 3718 3679 3640 3602 3565 3565 3565 3565 3565 3528 3528 3528 3528 3528 3528 3528 3528 3493 3493 3458 3423 3390 3390 3390 3390 3390 3390 3390 3390 3390 3390 3357 3357 3357 3324 3324 3293 3262 3262 3262 3262 3262 3231 3231 3231 3231 3201 3172 3172 3143 3143 3115
    0 0 0 0 0 0 0 0 0 0 0 0 0 0 0 0 0 0 0 0 0 0 0 0 0 0 0 0 0 0 0 0 0 0 0 0 0 0 0 0 0 0 0 0 0 0 0 0 0 0 0 0 0 0 0 0 0 0 0 0 0 0 0 0 0 0 0 0 0 0 0 0 0 0 0 0 0 0 0 0 0 0 0 0 0 0 0 0 0 0 0 0 0 2174 2160 2174 2174 2187 2187 2187 2187 2187 2201 2201 2201 2201 2215 2215 2215 2215 2215 2230 2230 2244 2244 2259 2259 2259 2259 2680 2680 2659 2659 2659 2680 2680 2680 2680 2701 2701 3679 3679 3679 3640 3602 3602 3602 3602 3602 3565 3565 3565 3565 3565 3602 3602 3602 3565 3602 3602 3602 3602 3565 3565 3565 3602 3602 3602 3602 3640 3640 3640 3679 3640 3640 3640 3640 3602 3602 3602 3640 3640 3640 3640 3640 3640 3640 3640 3640 3640 3602 3602 3602 3640 3640 3640 3640 3640 3679 3679 3679 3679 3679 3679 3679 3679 3679 3679 3679 3679 3679 3679 3679 3679 3679 3679 3718 3679 3679 3679 3718 3718 3718 3718 3679 3679 3679 3718 3679 3679 3679 3718 3718 3718 3718 3718 3718 3718 3718 3679 3679 3718 3718 3718 3718 3718 3718 3718 3718 3718 3718 3718 3718 3718 3718 3718 3718 3718 3718 3718 3718 3718 3718 3718 3718 3759 3718 3718 3718 3718 3718 3718 3718 3759 3759 3759 3759 3759 3759 3800 3759 3759 3800 3800 3800 3800 3759 3759 3759 3800 3759 3759 3759 3759 3759 3759 3759 3759 3759 3800 3800 3800 3800 3800 3800 3800 3800 3800 3800 3800 3800 3800 3800 3800 3842 3842 3842 3842 3842 3842 3842 3842 3842 3842 3842 3842 649 650 650 649 650 651 653 653 654 654 654 655 655 655 656 656 658 659 659 659 660 660 661 661 663 663 664 664 664 665 665 667 668 669 670 672 672 673 673 674 674 674 676 676 677 677 678 678 680 680 681 682 682 684 685 686 686 688 689 691 692 692 693 695 695 695 696 698 698 698 698 700 700 702 702 703 705 706 708 708 708 709 709 711 711 712 712 713 713 715 715 716 718 716 718 718 718 718 0 0 0 0 0 0 0 0 0 0 0 0 0 0 0 0 0 0 0 0 0 0 0 0 0 0 0 0 0 0 0 0 0 0 0 0 0 0 0 0 0 0 0 0 3930 3842 3842 3842 3885 3885 3885 3885 3885 3885 3930 3930 3930 3930 3930 3885 3885 3930 3885 3885 3885 3885 3885 3885 3885 3885 3885 3885 3885 3885 3885 3885 3885 3930 3885 3885 3885 3930 3930 3885 3930 3885 3885 3885 3885 3885 3885 3885 3885 3842 3842 3885 3885 3885 3885 3885 3885 3885 3885 3885 3885 3885 3885 3885 3885 3885 3842 3885 3885 3885 3885 3885 3885 3885 3930 3885 3885 3885 3885 3885 3930 3930 3930 3975 3975 3930 3930 3930 3885 3885 3885 3885 3885 3885 3885 3930 3930 3975 3930 3975 3930 3930 3930 3885 3885 3885 3885 3885 3930 3930 3930 3930 3930 3930 3930 3885 3885 3842 3842 3842 3842 3842 3800 3800 3800 3842 3842 3800 3759 3718 3759 3679 3640 3602 3565 3565 3565 3565 3565 3493 3528 3528 3528 3528 3528 3493 3493 3493 3493 3458 3423 3390 3390 3390 3390 3390 3390 3390 3390 3390 3357 3357 3357 3324 3324 3324 3293 3262 3262 3262 3231 3231 3231 3231 3231 3231 3201 3172 3172 3143 3143 3115
    0 0 0 0 0 0 0 0 0 0 0 0 0 0 0 0 0 0 0 0 0 0 0 0 0 0 0 0 0 0 0 0 0 0 0 0 0 0 0 0 0 0 0 0 0 0 0 0 0 0 0 0 0 0 0 0 0 0 0 0 0 0 0 0 0 0 0 0 0 0 0 0 0 0 0 0 0 0 0 0 0 0 0 0 0 0 0 0 0 0 0 0 0 2160 2147 2160 2160 2174 2174 2187 2187 2187 2201 2201 2201 2201 2215 2215 2215 2215 2230 2230 2230 2230 2244 2244 2244 2244 2659 2659 2659 2639 2639 2659 2659 2659 2659 2680 2680 2680 3679 3679 3679 3640 3640 3640 3640 3602 3602 3565 3565 3565 3565 3565 3602 3565 3565 3565 3565 3565 3565 3602 3565 3565 3565 3565 3602 3602 3602 3602 3602 3640 3640 3640 3640 3640 3602 3640 3640 3640 3640 3640 3640 3640 3640 3640 3602 3602 3602 3602 3602 3602 3602 3602 3640 3640 3640 3640 3679 3679 3679 3679 3679 3679 3679 3679 3679 3679 3679 3679 3679 3679 3679 3679 3679 3679 3679 3679 3679 3679 3679 3679 3679 3679 3679 3679 3679 3679 3679 3679 3718 3718 3718 3718 3718 3718 3718 3718 3718 3679 3679 3718 3718 3718 3718 3718 3718 3718 3759 3718 3718 3718 3718 3718 3718 3718 3679 3718 3718 3718 3718 3718 3718 3718 3718 3718 3718 3718 3718 3718 3718 3718 3718 3759 3759 3759 3759 3759 3800 3800 3759 3759 3759 3759 3759 3800 3759 3759 3759 3800 3759 3759 3759 3759 3759 3759 3759 3759 3759 3800 3800 3800 3800 3800 3800 3800 3800 3800 3800 3800 3800 3800 3800 3842 3842 3842 3842 3842 3842 3842 3842 3842 3842 3842 3842 3842 3885 649 649 649 649 650 651 651 653 653 654 654 654 655 655 656 656 658 659 658 659 659 661 661 663 663 663 664 664 665 665 667 668 669 669 670 672 672 672 673 673 674 674 674 676 677 677 678 680 680 681 681 681 682 684 684 684 685 686 689 689 691 692 692 693 693 695 696 698 698 698 699 700 700 700 702 703 705 705 706 708 708 709 709 711 711 711 713 713 713 715 715 716 716 716 716 718 718 718 719 719 721 721 0 724 724 724 724 725 725 0 0 0 0 0 0 0 0 0 0 0 0 0 0 0 0 0 0 0 0 0 0 0 0 0 0 0 0 0 0 0 0 3930 0 3842 3885 3885 3885 3885 3885 3885 3930 3930 3930 3930 3930 3930 3930 3885 3930 3885 3885 3885 3885 3885 3885 3885 3885 3885 3885 3885 3885 3885 3885 3930 3930 3930 3930 3885 3930 3930 3885 3885 3842 3885 3885 3885 3885 3885 3885 3885 3885 3885 3885 3885 3885 3885 3885 3885 3885 3885 3930 3930 3930 3885 3885 3885 3885 3885 3885 3885 3885 3885 3885 3930 3885 3930 3885 3885 3885 3885 3885 3930 3930 3930 3930 3975 3930 3930 3885 3885 3885 3885 3885 3885 3885 3885 3930 3930 3975 3975 3975 3975 3930 3930 3885 3885 3885 3885 3885 3930 3930 3975 3930 3930 3930 3975 3930 3930 3885 3885 3885 3842 3842 3800 3800 3800 3800 3800 3800 3759 3718 3759 3679 3679 3640 3602 3602 3565 3565 3565 3528 3528 3528 3528 3528 3528 3528 3493 3493 3493 3423 3423 3390 3390 3390 3390 3390 3390 3390 3390 3357 3357 3357 3357 3324 3324 3324 3293 3262 3262 3262 3231 3231 3231 3231 3231 3231 3201 3201 3172 3143 3143 3115
    0 0 0 0 0 0 0 0 0 0 0 0 0 0 0 0 0 0 0 0 0 0 0 0 0 0 0 0 0 0 0 0 0 0 0 0 0 0 0 0 0 0 0 0 0 0 0 0 0 0 0 0 0 0 0 0 0 0 0 0 0 0 0 0 0 0 0 0 0 0 0 0 0 0 0 0 0 0 0 0 0 0 0 0 0 0 0 0 0 0 0 0 0 2147 2147 2160 2160 2174 2174 2187 2187 2187 2201 2201 2201 2201 2215 2215 2215 2215 2215 2230 2230 2230 2230 2230 2230 2230 2639 2639 2639 2639 2639 2639 2639 2659 2639 2659 2680 2680 3679 3679 3679 3640 3602 3640 3602 3602 3602 3565 3565 3565 3565 3565 3565 3565 3565 3565 3565 3565 3565 3602 3602 3602 3565 3602 3602 3640 3602 3640 3602 3640 3640 3640 3640 3640 3602 3602 3640 3640 3640 3640 3640 3640 3640 3640 3602 3602 3602 3602 3602 3602 3602 3640 3640 3640 3679 3679 3679 3679 3679 3679 3679 3679 3679 3679 3679 3679 3679 3679 3679 3679 3679 3679 3679 3679 3679 3679 3679 3679 3679 3718 3718 3679 3679 3679 3679 3718 3718 3718 3718 3718 3718 3718 3718 3718 3718 3718 3718 3679 3679 3718 3718 3718 3718 3718 3718 3718 3718 3718 3718 3718 3718 3718 3679 3718 3679 3679 3679 3718 3718 3718 3718 3718 3718 3718 3718 3718 3718 3718 3718 3718 3718 3759 3759 3759 3759 3759 3800 3800 3759 3759 3759 3759 3759 3759 3759 3759 3759 3759 3759 3759 3759 3759 3759 3759 3759 3759 3759 3759 3759 3800 3800 3800 3800 3800 3800 3800 3800 3800 3800 3800 3800 3842 3842 3842 3842 3842 3842 3842 3842 3842 3842 3842 3842 3842 3885 648 649 648 649 649 650 651 651 653 653 654 654 654 655 655 656 656 656 656 658 659 660 660 661 663 663 664 664 665 665 665 667 668 669 669 670 670 672 672 673 673 673 674 674 676 676 677 677 677 680 680 681 681 682 682 682 684 685 686 688 688 689 691 691 692 693 695 696 696 696 698 698 699 699 700 702 702 703 705 706 708 708 709 709 711 711 712 713 713 715 715 716 716 716 716 716 718 718 719 719 721 721 722 724 724 724 725 725 725 0 0 0 0 0 0 0 0 0 0 0 0 0 0 0 0 0 0 0 0 0 0 0 0 0 0 0 0 0 0 0 0 0 0 0 3800 3885 3885 3885 3842 3885 3930 3930 3930 3930 3930 3930 3930 3930 3930 3885 3885 3885 3885 3885 3885 3885 3885 3885 3885 3885 3885 3885 3885 3930 3930 3930 3930 3885 3930 3930 3885 3885 3885 3885 3885 3885 3885 3885 3885 3885 3885 3885 3885 3885 3842 3885 3885 3885 3885 3885 3885 3885 3930 3885 3885 3885 3885 3885 3885 3885 3885 3885 3885 3885 3885 3885 3885 3885 3885 3885 3885 3930 3930 3930 3930 3975 3930 3885 3885 3885 3885 3885 3885 3885 3885 3930 3930 3975 3975 3975 3975 3975 3930 3930 3885 3885 3885 3885 3885 3930 3930 3930 3930 3930 3930 3930 3930 3930 3885 3885 3842 3842 3842 3800 3800 3842 3842 3842 3842 3800 3759 3800 3718 3679 3640 3640 3602 3602 3602 3565 3565 3528 3528 3528 3528 3528 3528 3493 3493 3493 3423 3423 3423 3423 3390 3390 3390 3390 3390 3390 3357 3357 3357 3324 3324 3324 3293 3293 3262 3262 3262 3262 3262 3231 3231 3231 3231 3231 3201 3172 3143 3115 3087
    0 0 0 0 0 0 0 0 0 0 0 0 0 0 0 0 0 0 0 0 0 0 0 0 0 0 0 0 0 0 0 0 0 0 0 0 0 0 0 0 0 0 0 0 0 0 0 0 0 0 0 0 0 0 0 0 0 0 0 0 0 0 0 0 0 0 0 0 0 0 0 0 0 0 0 0 0 0 0 0 0 0 0 0 0 0 0 0 0 0 0 0 0 0 2147 2160 2160 2174 2174 2187 2187 2187 2201 2201 2201 2201 2215 2215 2215 2215 2230 2230 2230 2230 2230 2230 2230 2230 2230 2619 2619 2619 2619 2639 2639 2639 2639 2639 2659 2659 3679 3679 3640 3640 3602 3602 3602 3602 3602 3565 3565 3565 3565 3565 3565 3565 3565 3565 3565 3565 3565 3602 3602 3602 3565 3602 3602 3602 3602 3602 3602 3602 3640 3640 3602 3640 3640 3640 3640 3640 3640 3640 3640 3640 3640 3602 3602 3602 3602 3602 3602 3602 3602 3640 3640 3640 3679 3679 3679 3679 3679 3679 3679 3679 3679 3679 3679 3679 3679 3679 3679 3679 3679 3679 3679 3679 3679 3679 3679 3679 3679 3718 3679 3679 3679 3679 3679 3679 3679 3679 3718 3718 3718 3718 3718 3718 3718 3718 3718 3679 3679 3718 3718 3718 3718 3679 3718 3718 3718 3679 3679 3679 3679 3679 3679 3679 3679 3679 3679 3679 3718 3718 3718 3718 3718 3759 3718 3718 3718 3718 3718 3718 3718 3718 3759 3759 3759 3759 3759 3759 3759 3759 3759 3759 3759 3759 3759 3759 3759 3759 3759 3759 3759 3759 3759 3718 3759 3759 3759 3759 3759 3800 3800 3800 3800 3800 3800 3800 3800 3800 3800 3800 3800 3800 3842 3842 3842 3842 3842 3842 3842 3842 3842 3842 3842 647 647 648 648 647 648 649 650 650 651 651 653 654 653 654 654 655 655 655 656 655 656 658 659 660 660 661 661 663 664 665 665 665 667 668 668 669 670 670 670 672 672 672 672 673 674 674 676 676 677 677 678 680 681 681 681 682 682 682 684 685 686 686 686 688 689 689 692 693 695 695 696 696 698 698 698 699 700 702 703 703 705 705 706 708 709 709 711 712 712 713 713 715 715 715 716 716 716 716 718 719 719 719 719 721 722 724 724 724 725 725 727 729 730 0 0 0 0 0 0 0 0 0 0 0 0 0 0 0 0 0 0 0 0 0 0 0 0 0 0 0 0 0 0 0 0 0 0 0 0 3885 3885 3930 3930 3930 3930 3930 3930 3930 3930 3930 3885 3885 3885 3885 3885 3885 3885 3885 3885 3885 3885 3885 3885 3885 3930 3930 3930 3885 3885 3885 3930 3885 3885 3885 3885 3885 3885 3885 3885 3885 3885 3885 3885 3842 3842 3842 3842 3842 3885 3885 3885 3885 3885 3885 3885 3885 3885 3885 3885 3885 3885 3885 3885 3885 3885 3885 3885 3885 3885 3885 3885 3885 3930 3975 3975 3975 3975 3930 3930 3930 3885 3885 3885 3885 3885 3885 3930 3930 3930 3930 3975 3975 3930 3930 3885 3885 3885 3885 3885 3885 3885 3930 3930 3930 3930 3885 3930 3930 3885 3842 3885 3842 3842 3800 3759 3759 3800 3800 3800 3842 3800 3800 3800 3718 3679 3679 3640 3640 3640 3602 3565 3528 3528 3528 3493 3493 3493 3493 3493 3493 3458 3423 3423 3423 3423 3390 3390 3390 3390 3390 3390 3357 3357 3324 3324 3324 3324 3293 3293 3262 3262 3262 3262 3262 3231 3231 3231 3231 3201 3172 3172 3115 3087 3087
    0 0 0 0 0 0 0 0 0 0 0 0 0 0 0 0 0 0 0 0 0 0 0 0 0 0 0 0 0 0 0 0 0 0 0 0 0 0 0 0 0 0 0 0 0 0 0 0 0 0 0 0 0 0 0 0 0 0 0 0 0 0 0 0 0 0 0 0 0 0 0 0 0 0 0 0 0 0 0 0 0 0 0 0 0 0 0 0 0 0 0 0 0 2147 2133 2147 2160 2160 2174 2174 2187 2187 2201 2201 2201 2201 2215 2215 2215 2215 2230 2230 2230 2230 2230 2230 2230 2230 2230 2215 2619 2619 2619 2619 2619 2639 2619 2639 2639 3679 3679 3640 3640 3602 3602 3602 3602 3602 3602 3565 3565 3565 3565 3565 3565 3565 3565 3565 3565 3565 3565 3602 3602 3565 3565 3565 3565 3602 3565 3565 3565 3565 3602 3602 3602 3602 3640 3640 3640 3640 3640 3640 3640 3640 3640 3602 3602 3602 3602 3602 3602 3602 3640 3640 3679 3679 3679 3679 3679 3679 3679 3679 3679 3679 3679 3679 3679 3679 3679 3679 3679 3679 3679 3679 3679 3679 3679 3679 3679 3679 3679 3679 3679 3679 3679 3679 3679 3718 3718 3718 3718 3718 3718 3718 3718 3718 3718 3718 3718 3679 3679 3718 3718 3718 3718 3679 3718 3718 3718 3679 3679 3679 3679 3679 3679 3640 3640 3679 3679 3679 3679 3718 3718 3718 3759 3759 3718 3718 3718 3718 3718 3718 3718 3718 3718 3759 3759 3759 3759 3759 3759 3759 3759 3759 3718 3718 3718 3718 3718 3759 3759 3759 3718 3718 3718 3718 3759 3759 3759 3759 3759 3800 3800 3800 3800 3800 3800 3800 3800 3800 3800 3800 3800 3800 3800 3842 3842 3842 3842 3842 3842 3842 3842 3842 3842 647 647 647 647 647 648 648 649 650 650 651 651 653 651 653 653 654 654 654 655 655 655 656 658 659 660 660 661 661 663 664 664 665 667 667 668 668 669 669 669 670 670 672 672 673 673 674 676 676 677 677 678 680 680 681 681 682 682 682 684 685 685 685 686 686 688 688 691 692 693 693 695 696 696 696 698 698 699 700 702 702 703 703 706 706 708 709 709 711 712 712 713 713 715 713 715 716 716 716 718 718 719 719 719 721 722 724 724 724 725 725 727 729 730 730 732 0 0 0 0 0 0 0 0 0 0 0 0 0 0 0 0 0 0 0 0 0 0 0 0 0 0 0 0 0 0 0 0 0 0 0 0 0 3930 3975 3930 3930 3930 3885 3885 3885 3885 3842 3885 3885 3885 3885 3885 3842 3885 3885 3885 3885 3885 3885 3885 3930 3930 3885 3885 3885 3930 3885 3930 3842 3885 3885 3885 3885 3885 3885 3885 3842 3842 3842 3842 3842 3842 3842 3842 3842 3842 3842 3885 3885 3885 3885 3885 3885 3885 3885 3885 3885 3885 3885 3885 3885 3885 3885 3885 3885 3885 3885 3930 3975 3975 3930 3975 3930 3885 3885 3885 3885 3885 3885 3885 3885 3930 3930 3930 3930 3975 3930 3930 3930 3885 3885 3885 3885 3885 3885 3885 3885 3885 3885 3885 3885 3930 3930 3885 3842 3842 3842 3800 3759 3759 3718 3800 3718 3800 3800 3800 3759 3759 3718 3679 3679 3640 3640 3640 3602 3565 3528 3528 3528 3493 3493 3493 3493 3493 3458 3458 3423 3423 3423 3423 3390 3390 3423 3390 3390 3390 3357 3357 3324 3324 3293 3293 3293 3293 3262 3262 3262 3262 3262 3231 3231 3231 3201 3201 3172 3143 3115 3087 3087</data></dframe>
</opencv_storage>
