<?xml version="1.0"?>
<opencv_storage>
<dframe type_id="opencv-matrix">
  <rows>34</rows>
  <cols>640</cols>
  <dt>w</dt>
  <data>
    0 0 0 0 0 0 0 0 0 0 0 0 0 0 0 0 0 0 0 0 0 0 0 0 0 0 0 0 0 0 0 0 0 0 0 0 0 0 0 0 0 0 0 0 0 0 0 0 0 0 0 0 0 0 0 0 0 0 0 0 0 0 0 0 0 0 0 0 0 0 0 0 0 0 0 0 0 0 0 0 0 0 0 0 0 0 0 0 0 0 0 0 0 0 0 0 0 0 0 0 0 0 0 0 0 0 0 0 0 0 0 0 0 0 0 0 0 0 0 0 0 0 0 0 0 0 0 0 0 0 0 2560 2580 2560 2580 2580 2580 2580 2599 2560 2560 2560 2560 2560 2560 2560 2560 2560 2560 2560 2560 2560 2542 2523 2523 2523 2523 2523 2523 2523 2523 2523 2542 2542 2560 2542 2560 2560 2560 2560 2560 2560 2560 2560 2560 2542 2542 2542 2542 2542 2542 2542 2560 2560 2542 2542 2542 2542 2542 2523 2542 2542 2542 2542 2542 2542 2542 2542 2542 2542 2542 2542 2542 2560 2542 2542 2542 2542 2560 2580 2560 2542 2542 2542 2542 2560 2542 2542 2560 2542 2542 2542 2542 2542 2542 2542 2542 2542 2542 2542 2523 2523 2523 2523 2523 2505 2505 2505 2505 2505 2505 2505 2505 2505 2505 2523 2505 2505 2523 2523 2523 2523 2523 2523 2523 2523 2523 2523 2523 2523 2523 2523 2523 2523 2523 2523 2523 2523 2542 2542 2542 2542 2542 2542 2542 2542 2542 2542 2542 2542 2542 2542 2542 2523 2523 2523 2523 2523 2523 2523 2523 2523 2523 2523 2523 2523 2542 2542 2560 2560 1986 1986 1986 1986 1975 1975 1975 1975 1964 1964 1964 1952 1952 1941 1941 1941 1941 1941 1941 1941 1920 1920 1920 1920 1920 1920 1920 1920 1920 1920 1909 1909 1909 1909 1909 1909 1909 1920 1920 1909 1920 1909 1899 1909 1899 1899 1899 1899 1899 1899 1899 1899 1909 1909 1920 1920 1920 1920 1920 1920 1920 1920 1920 1920 1920 1931 1931 1931 1931 1931 1931 1931 1941 1941 1941 1952 1964 1964 1975 1975 1975 1986 1986 1998 1998 2009 2009 2009 2009 2009 2542 2542 2560 2560 2560 2560 2560 2542 2542 2542 2542 2542 2542 2542 2542 2542 2542 2542 2523 2542 2523 2523 2523 2523 2523 2505 2523 2505 2523 2523 2523 2523 2542 2542 2542 2523 2523 2542 2542 2542 2523 2523 2523 2523 2523 2542 2523 2523 2542 2542 2542 2542 2542 2542 2542 2542 2542 2542 2542 2542 2542 2542 2542 2523 2523 2523 2523 2523 2523 2523 2523 2523 2523 2542 2542 2523 2523 2542 2523 2523 2523 2523 2523 2523 2542 2523 2542 2542 2542 2542 2542 2542 2542 2542 2542 2542 2542 2542 2523 2523 2542 2542 2542 2542 2542 2542 2542 2542 2542 2542 2523 2523 2542 2542 2542 2523 2505 2542 2523 2523 2523 2523 2523 2523 2505 2505 2523 2523 2523 2523 2523 2523 2523 2523 2523 2523 2523 2523 2523 2523 2523 2523 2523 2523 2523 2523 2523 2523 2542 2542 2542 2542 2542 2542 2542 2542 2523 2523 2523 2523 2523 2523 2523 2542 2542 2542 2542 2542 2542 2542 2542 2542 2542 2560 2542 2542 2542 2542 2542 2523 2523 2523 2542 2523 2542 2542 2542 2542 2542 2560 2560 2542 2542 2542 2560 2560 2560 2560 2560 2560 2542 2542 2523 2523 2523 2523 2523 2542 2542 2542 2542 2542 2542 2560 2542 2560 2542 2542 2542 2542 2542 2523 2523 2505 2505 2505 2505 2505 2505 2505 2505 2505 2505 2487 2487 2487 2487 2487 2487 2487 2505 2505 2487 2505 2487 2469 2469 2451 2451 2434
    0 0 0 0 0 0 0 0 0 0 0 0 0 0 0 0 0 0 0 0 0 0 0 0 0 0 0 0 0 0 0 0 0 0 0 0 0 0 0 0 0 0 0 0 0 0 0 0 0 0 0 0 0 0 0 0 0 0 0 0 0 0 0 0 0 0 0 0 0 0 0 0 0 0 0 0 0 0 0 0 0 0 0 0 0 0 0 0 0 0 0 0 0 0 0 0 0 0 0 0 0 0 0 0 0 0 0 0 0 0 0 0 0 0 0 0 0 0 0 0 0 0 0 0 0 0 0 0 0 0 0 2580 2580 2580 2580 2580 2599 2599 2599 2580 2580 2580 2580 2580 2580 2580 2580 2580 2580 2580 2580 2580 2560 2542 2523 2523 2523 2523 2523 2523 2523 2542 2560 2560 2560 2560 2560 2560 2560 2560 2560 2560 2560 2560 2560 2560 2560 2542 2542 2542 2542 2542 2542 2560 2542 2542 2542 2560 2542 2542 2560 2542 2560 2560 2560 2542 2560 2542 2542 2560 2542 2542 2542 2560 2542 2560 2560 2560 2580 2580 2580 2560 2560 2560 2542 2560 2560 2542 2560 2542 2542 2542 2542 2542 2560 2542 2542 2542 2560 2560 2523 2523 2523 2523 2523 2505 2505 2505 2505 2505 2505 2505 2505 2505 2523 2523 2505 2505 2523 2523 2523 2523 2523 2542 2542 2542 2542 2542 2542 2523 2523 2523 2523 2523 2523 2523 2542 2542 2560 2560 2560 2542 2542 2542 2542 2542 2542 2542 2542 2542 2542 2542 2542 2542 2542 2523 2523 2523 2523 2523 2523 2523 2523 2523 2542 2542 2542 2542 2560 2560 1986 1986 1986 1986 1986 1975 1975 1964 1964 1964 1952 1952 1952 1941 1941 1941 1941 1931 1931 1931 1920 1920 1920 1920 1920 1920 1909 1909 1909 1909 1909 1899 1899 1899 1899 1899 1909 1909 1909 1909 1909 1899 1899 1899 1899 1899 1888 1888 1888 1899 1899 1899 1899 1909 1909 1909 1909 1909 1920 1909 1920 1920 1920 1920 1920 1931 1931 1931 1931 1931 1931 1931 1931 1931 1931 1941 1952 1952 1964 1964 1964 1975 1975 1986 1986 1998 1998 2009 2009 2009 2009 2542 2542 2560 2542 2560 2560 2542 2542 2542 2542 2542 2542 2542 2542 2542 2542 2542 2542 2542 2523 2523 2523 2523 2523 2523 2523 2523 2523 2523 2523 2523 2542 2542 2542 2542 2542 2523 2523 2542 2523 2523 2523 2523 2523 2523 2523 2523 2542 2542 2542 2542 2542 2542 2542 2560 2560 2560 2542 2542 2542 2542 2542 2523 2523 2523 2523 2523 2523 2523 2523 2542 2542 2542 2542 2542 2542 2542 2542 2542 2542 2542 2542 2542 2542 2542 2542 2542 2542 2542 2542 2542 2542 2542 2542 2542 2542 2523 2523 2523 2523 2523 2523 2542 2542 2542 2542 2542 2542 2542 2523 2523 2542 2542 2542 2542 2523 2542 2542 2523 2523 2523 2523 2523 2505 2523 2523 2523 2523 2523 2542 2523 2542 2542 2523 2542 2542 2523 2523 2523 2523 2523 2542 2523 2542 2542 2542 2542 2542 2542 2560 2542 2542 2542 2560 2542 2542 2523 2523 2523 2523 2523 2523 2542 2542 2542 2542 2542 2542 2542 2542 2560 2560 2560 2542 2542 2542 2542 2542 2523 2523 2523 2542 2542 2542 2560 2542 2560 2560 2560 2560 2560 2560 2560 2560 2560 2580 2580 2580 2580 2560 2542 2542 2542 2523 2523 2523 2542 2542 2542 2560 2542 2560 2560 2560 2560 2560 2560 2560 2560 2560 2542 2542 2523 2542 2505 2505 2505 2542 2505 2505 2523 2523 2505 2505 2505 2505 2505 2505 2505 2505 2505 2487 2487 2487 2469 2469 2451 2451 2451
    0 0 0 0 0 0 0 0 0 0 0 0 0 0 0 0 0 0 0 0 0 0 0 0 0 0 0 0 0 0 0 0 0 0 0 0 0 0 0 0 0 0 0 0 0 0 0 0 0 0 0 0 0 0 0 0 0 0 0 0 0 0 0 0 0 0 0 0 0 0 0 0 0 0 0 0 0 0 0 0 0 0 0 0 0 0 0 0 0 0 0 0 0 0 0 0 0 0 0 0 0 0 0 0 0 0 0 0 0 0 0 0 0 0 0 0 0 0 0 0 0 0 0 0 0 0 0 0 0 0 2560 2580 2580 2580 2580 2580 2599 2599 2599 2560 2580 2580 2580 2580 2580 2580 2580 2580 2580 2580 2580 2580 2580 2560 2523 2542 2523 2542 2523 2542 2542 2542 2560 2560 2560 2560 2560 2560 2560 2580 2560 2560 2580 2580 2580 2580 2580 2560 2560 2580 2560 2560 2560 2560 2560 2560 2560 2560 2560 2560 2560 2560 2560 2560 2560 2560 2560 2560 2560 2560 2560 2542 2542 2560 2560 2580 2580 2580 2580 2580 2580 2580 2580 2560 2542 2560 2560 2560 2560 2560 2560 2542 2560 2542 2560 2542 2560 2560 2560 2560 2523 2523 2523 2523 2523 2505 2505 2523 2523 2523 2523 2523 2523 2523 2523 2523 2523 2523 2523 2523 2523 2542 2542 2542 2542 2560 2542 2542 2542 2542 2542 2523 2523 2523 2523 2542 2542 2560 2560 2560 2560 2560 2560 2560 2560 2560 2542 2542 2542 2542 2542 2542 2560 2542 2542 2542 2523 2542 2523 2542 2523 2523 2523 2542 2542 2560 2560 2560 1986 1986 1986 1986 1986 1986 1975 1975 1964 1964 1952 1952 1952 1941 1941 1941 1941 1941 1931 1931 1931 1931 1920 1909 1920 1909 1909 1909 1909 1909 1899 1899 1899 1899 1899 1899 1899 1899 1899 1899 1899 1899 1899 1899 1888 1888 1888 1888 1888 1888 1888 1888 1899 1899 1899 1899 1909 1909 1909 1909 1909 1909 1909 1909 1909 1920 1920 1920 1920 1931 1920 1931 1931 1931 1931 1931 1931 1931 1941 1952 1952 1964 1964 1975 1975 1986 1986 1998 1998 1998 2009 2009 2021 2021 2033 2033 2560 2560 2560 2560 2542 2542 2542 2542 2560 2560 2560 2560 2542 2542 2542 2542 2523 2523 2523 2523 2523 2523 2523 2523 2542 2542 2542 2542 2542 2542 2542 2542 2542 2542 2542 2542 2523 2523 2523 2523 2523 2542 2523 2542 2542 2542 2542 2542 2542 2542 2542 2560 2560 2560 2542 2542 2542 2542 2542 2542 2542 2542 2542 2542 2542 2542 2542 2542 2542 2542 2542 2523 2542 2542 2542 2542 2542 2542 2542 2542 2542 2542 2542 2542 2542 2542 2542 2542 2542 2542 2542 2542 2542 2542 2523 2523 2523 2523 2523 2542 2542 2542 2542 2542 2542 2542 2523 2542 2523 2523 2523 2523 2523 2523 2523 2523 2523 2523 2523 2523 2523 2523 2542 2542 2542 2542 2560 2560 2560 2542 2542 2560 2542 2542 2542 2542 2542 2523 2542 2542 2542 2542 2542 2542 2542 2560 2560 2560 2560 2560 2560 2542 2542 2542 2523 2542 2542 2523 2523 2542 2542 2542 2560 2560 2560 2560 2560 2560 2560 2560 2542 2542 2542 2542 2523 2523 2523 2523 2542 2542 2542 2560 2560 2560 2580 2580 2580 2560 2560 2560 2580 2580 2580 2580 2580 2580 2560 2560 2542 2542 2542 2523 2542 2542 2542 2542 2560 2542 2542 2560 2560 2560 2560 2560 2560 2560 2560 2560 2560 2542 2542 2505 2505 2505 2505 2523 2523 2560 2523 2523 2523 2523 2523 2505 2505 2505 2505 2505 2487 2505 2487 2487 2487 2469 2469 2469
    0 0 0 0 0 0 0 0 0 0 0 0 0 0 0 0 0 0 0 0 0 0 0 0 0 0 0 0 0 0 0 0 0 0 0 0 0 0 0 0 0 0 0 0 0 0 0 0 0 0 0 0 0 0 0 0 0 0 0 0 0 0 0 0 0 0 0 0 0 0 0 0 0 0 0 0 0 0 0 0 0 0 0 0 0 0 0 0 0 0 0 0 0 0 0 0 0 0 0 0 0 0 0 0 0 0 0 0 0 0 0 0 0 0 0 0 0 0 0 0 0 0 0 0 0 0 0 0 0 0 2580 2599 2599 2580 2580 2580 2599 2599 2599 2580 2580 2580 2580 2580 2580 2580 2580 2580 2580 2580 2580 2580 2580 2580 2580 2580 2560 2580 2560 2580 2542 2542 2560 2560 2580 2580 2580 2560 2580 2580 2580 2580 2580 2580 2580 2580 2580 2580 2580 2580 2580 2580 2580 2580 2560 2560 2560 2580 2560 2560 2580 2560 2580 2580 2580 2560 2560 2560 2560 2560 2560 2560 2542 2560 2580 2580 2580 2580 2580 2580 2580 2580 2580 2580 2560 2560 2560 2560 2560 2560 2560 2560 2560 2560 2560 2560 2560 2560 2560 2560 2523 2542 2523 2523 2523 2523 2523 2523 2523 2523 2523 2523 2542 2523 2542 2542 2523 2523 2542 2542 2542 2542 2542 2542 2560 2560 2560 2560 2560 2542 2542 2542 2542 2542 2542 2542 2542 2560 2560 2560 2560 2560 2560 2560 2560 2560 2560 2560 2560 2560 2542 2560 2560 2560 2560 2542 2542 2542 2542 2542 2542 2542 2542 2560 2560 2560 2580 2560 1986 1986 1986 1986 1986 1975 1975 1964 1952 1952 1941 1941 1941 1941 1941 1941 1941 1931 1931 1931 1931 1920 1909 1909 1909 1909 1909 1899 1899 1899 1899 1899 1899 1899 1899 1899 1899 1888 1899 1899 1899 1899 1899 1888 1888 1888 1888 1888 1888 1888 1888 1888 1888 1899 1899 1899 1899 1899 1899 1899 1899 1899 1909 1899 1909 1920 1920 1920 1920 1920 1920 1920 1920 1920 1931 1931 1931 1931 1931 1941 1952 1952 1964 1975 1975 1975 1975 1986 1986 1998 2009 2009 2021 2021 2021 2033 2560 2560 2560 2560 2542 2542 2542 2560 2560 2560 2560 2560 2560 2542 2542 2560 2523 2523 2523 2523 2523 2523 2523 2523 2542 2542 2542 2542 2542 2542 2542 2542 2542 2542 2542 2542 2523 2542 2542 2542 2542 2542 2542 2542 2542 2542 2542 2542 2542 2542 2560 2560 2560 2560 2560 2542 2560 2560 2560 2542 2542 2542 2542 2542 2542 2542 2542 2542 2542 2560 2560 2542 2523 2542 2542 2542 2542 2542 2542 2542 2542 2542 2542 2542 2542 2542 2542 2542 2542 2542 2542 2542 2542 2523 2542 2542 2542 2523 2523 2542 2542 2542 2542 2542 2542 2542 2523 2542 2523 2560 2560 2560 2523 2542 2542 2523 2523 2523 2523 2523 2523 2542 2560 2542 2542 2560 2560 2560 2560 2560 2560 2560 2560 2560 2542 2542 2560 2542 2560 2560 2560 2560 2560 2560 2560 2560 2560 2560 2560 2560 2560 2560 2542 2542 2542 2542 2542 2542 2542 2542 2542 2560 2560 2560 2560 2560 2560 2560 2560 2560 2560 2560 2542 2560 2542 2523 2523 2542 2542 2542 2560 2560 2560 2580 2580 2580 2580 2580 2580 2560 2580 2580 2580 2580 2580 2580 2560 2560 2560 2560 2542 2542 2542 2542 2560 2560 2560 2542 2560 2560 2560 2560 2560 2560 2560 2580 2580 2560 2560 2542 2560 2542 2523 2542 2542 2542 2542 2560 2560 2560 2560 2542 2523 2523 2505 2505 2505 2505 2505 2505 2505 2505 2505 2487 2487 2487
    0 0 0 0 0 0 0 0 0 0 0 0 0 0 0 0 0 0 0 0 0 0 0 0 0 0 0 0 0 0 0 0 0 0 0 0 0 0 0 0 0 0 0 0 0 0 0 0 0 0 0 0 0 0 0 0 0 0 0 0 0 0 0 0 0 0 0 0 0 0 0 0 0 0 0 0 0 0 0 0 0 0 0 0 0 0 0 0 0 0 0 0 0 0 0 0 0 0 0 0 0 0 0 0 0 0 0 0 0 0 0 0 0 0 0 0 0 0 0 0 0 0 0 0 0 0 0 0 0 0 2580 2599 2599 2599 2599 2599 2599 2599 2599 2580 2580 2580 2580 2580 2580 2580 2580 2580 2580 2580 2580 2599 2599 2580 2580 2580 2580 2599 2580 2580 2580 2580 2580 2580 2580 2580 2580 2580 2580 2580 2580 2580 2580 2580 2580 2580 2599 2580 2580 2580 2580 2580 2580 2580 2580 2580 2580 2580 2560 2580 2580 2580 2580 2580 2580 2560 2580 2560 2560 2580 2560 2560 2560 2580 2580 2580 2580 2580 2580 2580 2580 2580 2580 2580 2560 2560 2560 2580 2560 2560 2560 2560 2580 2560 2580 2560 2560 2580 2580 2580 2542 2542 2523 2523 2542 2523 2523 2542 2542 2542 2542 2542 2542 2523 2542 2542 2542 2523 2542 2542 2542 2542 2560 2560 2560 2560 2560 2560 2560 2560 2542 2542 2542 2542 2542 2560 2560 2560 2560 2560 2560 2560 2560 2560 2560 2560 2560 2560 2560 2560 2560 2560 2560 2560 2560 2542 2560 2560 2560 2560 2542 2560 2560 2560 2560 2580 1986 1986 1986 1986 1986 1986 1975 1975 1964 1964 1952 1941 1941 1941 1941 1941 1941 1931 1931 1931 1920 1920 1931 1920 1909 1909 1909 1909 1909 1899 1899 1899 1899 1899 1899 1899 1899 1899 1899 1888 1888 1888 1888 1888 1888 1888 1888 1888 1888 1888 1888 1888 1888 1888 1888 1888 1899 1899 1899 1899 1899 1899 1899 1899 1899 1899 1909 1909 1920 1920 1920 1920 1920 1920 1920 1920 1920 1920 1920 1931 1931 1941 1941 1952 1964 1964 1975 1975 1975 1975 1975 1986 1998 2009 2009 2009 2021 2021 2021 2560 2560 2560 2560 2560 2560 2560 2560 2560 2560 2560 2560 2560 2542 2560 2542 2542 2542 2523 2523 2542 2542 2542 2542 2542 2542 2542 2560 2560 2560 2560 2542 2542 2542 2542 2542 2542 2542 2542 2542 2560 2542 2542 2560 2560 2560 2560 2560 2542 2560 2560 2560 2560 2560 2560 2560 2560 2560 2560 2560 2542 2542 2560 2560 2560 2560 2542 2542 2560 2560 2560 2523 2560 2542 2542 2542 2542 2542 2542 2560 2542 2542 2542 2542 2542 2542 2542 2542 2542 2560 2560 2542 2542 2542 2542 2542 2542 2542 2542 2560 2542 2542 2542 2560 2542 2523 2523 2523 2560 2560 2560 2523 2542 2542 2523 2523 2523 2523 2542 2542 2560 2560 2560 2560 2560 2560 2560 2560 2560 2560 2560 2560 2560 2560 2580 2580 2560 2560 2560 2560 2560 2560 2560 2560 2580 2580 2560 2560 2560 2560 2560 2560 2542 2542 2560 2560 2542 2542 2560 2560 2560 2560 2560 2560 2560 2560 2560 2560 2560 2560 2560 2560 2560 2542 2523 2542 2542 2542 2560 2560 2580 2560 2580 2580 2580 2580 2580 2580 2580 2580 2580 2599 2599 2599 2599 2560 2560 2560 2560 2560 2560 2560 2560 2560 2560 2560 2560 2560 2560 2560 2560 2560 2560 2560 2580 2580 2560 2560 2542 2560 2542 2542 2542 2542 2542 2542 2560 2560 2560 2560 2542 2542 2523 2523 2523 2505 2505 2505 2505 2505 2505 2505 2487 2487 2487
    0 0 0 0 0 0 0 0 0 0 0 0 0 0 0 0 0 0 0 0 0 0 0 0 0 0 0 0 0 0 0 0 0 0 0 0 0 0 0 0 0 0 0 0 0 0 0 0 0 0 0 0 0 0 0 0 0 0 0 0 0 0 0 0 0 0 0 0 0 0 0 0 0 0 0 0 0 0 0 0 0 0 0 0 0 0 0 0 0 0 0 0 0 0 0 0 0 0 0 0 0 0 0 0 0 0 0 0 0 0 0 0 0 0 0 0 0 0 0 0 0 0 0 0 0 0 0 0 0 0 2599 2599 2599 2599 2599 2599 2599 2599 2599 2580 2580 2599 2599 2580 2599 2599 2599 2599 2599 2580 2580 2599 2599 2580 2580 2580 2599 2599 2580 2580 2580 2580 2580 2580 2580 2580 2580 2580 2580 2580 2580 2580 2580 2580 2580 2580 2599 2599 2599 2580 2580 2580 2580 2580 2580 2580 2580 2580 2580 2580 2580 2580 2580 2580 2580 2580 2580 2580 2580 2580 2560 2560 2560 2580 2580 2580 2580 2580 2580 2580 2580 2580 2560 2560 2560 2560 2560 2580 2580 2560 2560 2560 2580 2580 2580 2580 2580 2580 2580 2580 2542 2560 2542 2542 2542 2542 2542 2542 2542 2560 2560 2542 2560 2560 2542 2542 2542 2542 2542 2560 2542 2560 2560 2560 2560 2560 2560 2560 2560 2560 2560 2560 2560 2560 2560 2560 2560 2560 2560 2580 2580 2560 2580 2560 2560 2560 2560 2560 2560 2560 2542 2542 2560 2560 2560 2542 2542 2560 2560 2560 2560 2560 2560 2560 2560 2580 1986 1986 1986 1986 1975 1975 1975 1975 1964 1952 1941 1941 1941 1941 1941 1941 1931 1931 1931 1931 1920 1920 1920 1920 1909 1909 1909 1909 1899 1899 1888 1899 1899 1899 1899 1899 1899 1899 1899 1888 1888 1888 1888 1888 1888 1888 1888 1888 1888 1888 1888 1888 1888 1888 1888 1888 1888 1888 1899 1888 1888 1899 1899 1899 1899 1899 1899 1909 1920 1920 1920 1920 1920 1920 1920 1920 1920 1920 1920 1931 1931 1941 1941 1941 1952 1964 1964 1964 1964 1975 1975 1975 1986 1998 1998 2009 2009 2021 2021 2580 2580 2580 2560 2560 2560 2560 2560 2560 2560 2560 2560 2560 2560 2560 2542 2542 2542 2542 2542 2542 2542 2542 2542 2542 2542 2560 2560 2560 2560 2560 2560 2560 2542 2542 2542 2542 2542 2560 2560 2560 2560 2560 2560 2560 2560 2560 2560 2560 2560 2580 2580 2580 2580 2560 2560 2560 2560 2560 2560 2560 2560 2560 2580 2580 2560 2560 2560 2580 2580 2580 2580 2580 2560 2580 2542 2542 2560 2560 2560 2542 2542 2542 2542 2542 2542 2542 2542 2542 2542 2560 2542 2542 2542 2542 2542 2542 2542 2560 2560 2560 2560 2542 2560 2542 2542 2523 2523 2560 2560 2560 2560 2542 2542 2542 2523 2523 2542 2542 2542 2560 2560 2560 2560 2560 2560 2560 2560 2560 2560 2580 2580 2580 2580 2580 2580 2560 2580 2580 2580 2580 2580 2580 2580 2580 2580 2580 2560 2580 2580 2560 2560 2560 2542 2560 2560 2542 2560 2560 2560 2580 2580 2560 2580 2580 2580 2580 2560 2580 2560 2560 2560 2560 2560 2542 2542 2542 2560 2560 2560 2580 2560 2580 2580 2580 2580 2580 2580 2580 2580 2580 2599 2599 2599 2599 2580 2580 2580 2560 2560 2560 2560 2560 2560 2560 2560 2560 2560 2560 2560 2560 2560 2560 2560 2560 2580 2560 2560 2560 2560 2560 2560 2560 2560 2560 2560 2560 2560 2560 2580 2560 2560 2542 2542 2523 2523 2523 2505 2505 2505 2505 2487 2487 2487 2487
    0 0 0 0 0 0 0 0 0 0 0 0 0 0 0 0 0 0 0 0 0 0 0 0 0 0 0 0 0 0 0 0 0 0 0 0 0 0 0 0 0 0 0 0 0 0 0 0 0 0 0 0 0 0 0 0 0 0 0 0 0 0 0 0 0 0 0 0 0 0 0 0 0 0 0 0 0 0 0 0 0 0 0 0 0 0 0 0 0 0 0 0 0 0 0 0 0 0 0 0 0 0 0 0 0 0 0 0 0 0 0 0 0 0 0 0 0 0 0 0 0 0 0 0 0 0 0 0 0 0 2599 2599 2599 2599 2599 2599 2619 2619 2619 2580 2599 2599 2599 2599 2599 2599 2599 2599 2599 2599 2599 2599 2599 2599 2599 2599 2599 2599 2599 2599 2580 2580 2580 2580 2580 2580 2580 2580 2580 2580 2580 2580 2580 2580 2580 2580 2599 2599 2599 2599 2599 2599 2580 2599 2599 2580 2580 2580 2580 2580 2580 2580 2580 2580 2580 2580 2580 2580 2580 2580 2580 2580 2580 2580 2580 2580 2580 2580 2580 2580 2580 2580 2560 2580 2560 2560 2580 2580 2580 2580 2580 2580 2580 2580 2580 2580 2580 2580 2580 2580 2560 2560 2542 2542 2542 2542 2560 2560 2560 2560 2560 2560 2560 2560 2560 2542 2542 2542 2542 2560 2542 2560 2560 2560 2560 2560 2560 2560 2560 2560 2560 2560 2560 2560 2560 2560 2560 2580 2580 2580 2580 2580 2580 2560 2560 2560 2560 2560 2560 2560 2560 2560 2560 2560 2560 2560 2560 2560 2560 2560 2560 2560 2560 2560 2580 1986 1986 1975 1975 1986 1975 1975 1975 1964 1952 1952 1941 1941 1941 1941 1931 1931 1931 1931 1931 1920 1920 1920 1920 1920 1909 1899 1899 1899 1899 1888 1888 1888 1899 1899 1899 1899 1899 1899 1899 1888 1888 1888 1888 1888 1888 1888 1888 1888 1888 1888 1888 1888 1888 1888 1888 1888 1888 1888 1888 1888 1888 1888 1899 1899 1899 1899 1899 1909 1909 1920 1920 1920 1909 1920 1920 1920 1920 1920 1920 1920 1931 1931 1941 1941 1952 1952 1964 1964 1964 1975 1975 1975 1986 1998 1998 2009 2021 2021 2021 2033 2033 2560 0 2560 2560 2560 2580 2560 2560 2560 2560 2560 2580 2580 2542 2542 2542 2542 2542 2542 2542 2542 2560 2560 2560 2580 2580 2580 2580 2560 2560 2560 2560 2560 2560 2542 2560 2560 2560 2580 2580 2560 2560 2580 2580 2580 2560 2560 2560 2580 2580 2580 2580 2560 2560 2560 2560 2560 2560 2560 2560 2580 2580 2580 2580 2580 2580 2580 2599 2599 2580 2580 2580 2580 2580 2580 2580 2560 2560 2560 2542 2542 2542 2542 2542 2542 2542 2542 2542 2542 2542 2542 2542 2542 2542 2542 2560 2580 2560 2560 2560 2560 2560 2542 2542 2523 2542 2560 2580 2560 2560 2542 2560 2523 2523 2523 2523 2542 2542 2560 2560 2560 2560 2560 2560 2560 2580 2580 2580 2580 2560 2580 2580 2560 2560 2560 2560 2560 2580 2580 2580 2580 2580 2580 2580 2580 2580 2580 2580 2580 2580 2560 2560 2560 2560 2560 2560 2560 2560 2580 2580 2560 2580 2580 2580 2580 2580 2580 2580 2580 2580 2580 2580 2560 2560 2560 2560 2580 2560 2580 2560 2580 2580 2580 2580 2580 2580 2580 2599 2599 2599 2599 2599 2599 2580 2580 2580 2580 2560 2560 2560 2580 2580 2580 2560 2560 2560 2560 2560 2560 2560 2560 2560 2560 2560 2560 2560 2542 2560 2542 2542 2560 2560 2560 2560 2560 2560 2580 2560 2560 2560 2542 2542 2542 2523 2523 2523 2505 2505 2505 2505 2505 2505 2487
    0 0 0 0 0 0 0 0 0 0 0 0 0 0 0 0 0 0 0 0 0 0 0 0 0 0 0 0 0 0 0 0 0 0 0 0 0 0 0 0 0 0 0 0 0 0 0 0 0 0 0 0 0 0 0 0 0 0 0 0 0 0 0 0 0 0 0 0 0 0 0 0 0 0 0 0 0 0 0 0 0 0 0 0 0 0 0 0 0 0 0 0 0 0 0 0 0 0 0 0 0 0 0 0 0 0 0 0 0 0 0 0 0 0 0 0 0 0 0 0 0 0 0 0 0 0 0 0 0 0 2599 2599 2599 2599 2599 2619 2619 2619 2619 2599 2599 2599 2599 2599 2599 2599 2599 2599 2599 2599 2599 2599 2599 2599 2599 2599 2599 2599 2599 2599 2580 2580 2580 2580 2580 2580 2580 2580 2580 2580 2580 2580 2580 2580 2580 2580 2599 2599 2599 2599 2599 2599 2599 2599 2599 2599 2599 2599 2599 2580 2599 2580 2580 2580 2580 2580 2580 2580 2580 2580 2580 2580 2580 2580 2580 2599 2599 2599 2599 2599 2599 2560 2580 2599 2560 2580 2580 2580 2580 2580 2580 2580 2580 2580 2580 2580 2580 2580 2580 2580 2560 2560 2560 2560 2542 2542 2560 2560 2560 2560 2560 2560 2560 2560 2560 2560 2542 2560 2560 2560 2542 2560 2560 2560 2560 2560 2560 2560 2580 2580 2560 2560 2560 2560 2560 2580 2580 2580 2580 2580 2580 2580 2580 2560 2560 2560 2560 2560 2560 2560 2560 2560 2560 2560 2560 2560 2560 2560 2560 2580 2560 2560 2580 2560 2580 1986 1986 1975 1975 1975 1975 1975 1964 1952 1952 1941 1941 1931 1931 1931 1931 1931 1931 1920 1920 1920 1909 1909 1909 1909 1899 1899 1899 1899 1899 1888 1888 1888 1899 1888 1899 1888 1899 1888 1899 1888 1888 1888 1888 1888 1888 1888 1888 1888 1888 1888 1888 1888 1888 1888 1888 1888 1888 1888 1888 1888 1888 1888 1888 1899 1899 1899 1899 1909 1909 1920 1920 1920 1909 1909 1909 1909 1920 1920 1920 1920 1931 1931 1931 1941 1941 1952 1964 1964 1964 1975 1975 1975 1975 1986 1998 1998 2009 2021 2033 2033 0 0 0 2599 2560 2580 2580 2580 2580 2560 2560 2560 2580 2560 2542 2542 2542 2542 2560 2560 2560 2560 2580 2580 2580 2580 2580 2580 2580 2580 2560 2560 2560 2560 2560 2560 2560 2580 2580 2580 2580 2580 2580 2580 2580 2580 2580 2580 2580 2580 2580 2580 2580 2560 2560 2560 2580 2560 2560 2580 2560 2580 2580 2580 2580 2580 2599 2599 2599 2599 2599 2599 2580 2580 2599 2580 2580 2560 2560 2580 2580 2542 2542 2542 2542 2542 2542 2542 2542 2542 2542 2542 2542 2542 2542 2542 2580 2580 2560 2560 2560 2560 2560 2560 2542 2542 2560 2560 2580 2580 2560 2560 2560 2560 2560 2542 2542 2542 2542 2560 2560 2560 2560 2560 2560 2580 2580 2580 2580 2580 2580 2580 2580 2580 2580 2560 2580 2580 2580 2580 2580 2580 2580 2580 2580 2580 2580 2580 2580 2580 2580 2580 2580 2580 2580 2580 2560 2580 2580 2580 2580 2580 2580 2580 2580 2580 2580 2580 2580 2580 2580 2580 2599 2580 2580 2560 2560 2580 2580 2580 2560 2560 2580 2580 2580 2580 2580 2580 2599 2599 2599 2599 2599 2599 2580 2580 2580 2580 2580 2560 2580 2580 2580 2580 2580 2580 2580 2580 2580 2580 2560 2560 2560 2560 2560 2560 2560 2560 2560 2560 2560 2560 2560 2560 2580 2560 2580 2580 2560 2560 2560 2560 2542 2542 2542 2523 2523 2523 2505 2505 2505 2505 2505 2487
    0 0 0 0 0 0 0 0 0 0 0 0 0 0 0 0 0 0 0 0 0 0 0 0 0 0 0 0 0 0 0 0 0 0 0 0 0 0 0 0 0 0 0 0 0 0 0 0 0 0 0 0 0 0 0 0 0 0 0 0 0 0 0 0 0 0 0 0 0 0 0 0 0 0 0 0 0 0 0 0 0 0 0 0 0 0 0 0 0 0 0 0 0 0 0 0 0 0 0 0 0 0 0 0 0 0 0 0 0 0 0 0 0 0 0 0 0 0 0 0 0 0 0 0 0 0 0 0 0 0 2599 2599 2599 2599 2599 2619 2619 2619 2619 2599 2599 2599 2599 2599 2599 2599 2599 2599 2599 2599 2599 2619 2599 2599 2599 2599 2599 2599 2599 2599 2599 2599 2599 2599 2580 2580 2580 2580 2580 2580 2580 2580 2580 2580 2599 2599 2599 2599 2599 2599 2599 2599 2599 2599 2599 2599 2599 2599 2599 2599 2599 2599 2599 2599 2599 2599 2580 2580 2580 2580 2599 2580 2599 2599 2599 2599 2599 2599 2599 2599 2599 2580 2580 2580 2580 2580 2580 2599 2599 2599 2599 2599 2599 2599 2580 2580 2580 2599 2580 2580 2560 2560 2560 2560 2560 2560 2560 2560 2560 2580 2560 2560 2580 2560 2560 2560 2560 2560 2560 2560 2560 2560 2560 2560 2560 2560 2560 2580 2580 2580 2580 2580 2580 2580 2580 2580 2580 2580 2580 2580 2580 2580 2580 2580 2580 2560 2560 2560 2560 2560 2560 2560 2560 2580 2580 2580 2580 2580 2580 2580 2560 2560 2560 2560 1998 1986 1975 1975 1975 1975 1975 1964 1964 1952 1941 1941 1931 1931 1931 1931 1931 1931 1920 1920 1920 1909 1909 1909 1909 1909 1899 1899 1888 1899 1888 1888 1888 1888 1888 1888 1899 1888 1888 1888 1888 1888 1888 1888 1888 1888 1888 1888 1888 1888 1888 1888 1888 1888 1888 1888 1888 1888 1888 1888 1888 1888 1888 1888 1888 1888 1899 1899 1899 1909 1909 1920 1920 1920 1909 1909 1909 1909 1920 1920 1920 1920 1931 1931 1931 1931 1941 1952 1964 1964 1964 1964 1964 1975 1975 1975 1986 1998 2009 2021 2033 0 0 0 0 0 2560 2580 2580 2580 2580 2580 2580 2580 2580 2580 2560 2542 2542 2560 2560 2560 2560 2560 2560 2580 2580 2580 2580 2580 2580 2580 2580 2560 2560 2580 2580 2580 2580 2580 2599 2599 2599 2580 2580 2580 2580 2580 2580 2580 2580 2599 2599 2580 2580 2560 2560 2560 2580 2560 2580 2580 2580 2580 2599 2599 2599 2599 2599 2599 2599 2599 2599 2599 2599 2599 2599 2599 2599 2580 2580 2580 2599 2599 2599 2599 2560 2560 2580 2542 2542 2560 2542 2542 2542 2542 2542 2542 2580 2580 2580 2580 2580 2580 2580 2580 2560 2560 2560 2580 2580 2580 2580 2580 2580 2580 2580 2580 2560 2560 2560 2580 2580 2560 2580 2580 2580 2580 2580 2580 2580 2580 2580 2580 2580 2580 2580 2580 2580 2580 2580 2580 2580 2580 2580 2580 2580 2580 2580 2580 2580 2580 2580 2580 2580 2580 2580 2580 2580 2580 2580 2580 2580 2580 2580 2580 2580 2580 2580 2580 2599 2599 2599 2599 2599 2599 2599 2580 2580 2580 2580 2580 2580 2580 2580 2580 2580 2580 2580 2599 2599 2599 2599 2599 2599 2599 2580 2580 2580 2580 2580 2580 2580 2580 2580 2580 2580 2580 2580 2580 2580 2580 2560 2580 2580 2580 2580 2560 2560 2560 2560 2560 2560 2560 2580 2580 2580 2580 2580 2560 2580 2580 2560 2560 2560 2542 2542 2523 2523 2523 2505 2505 2505 2505 2505 2487
    0 0 0 0 0 0 0 0 0 0 0 0 0 0 0 0 0 0 0 0 0 0 0 0 0 0 0 0 0 0 0 0 0 0 0 0 0 0 0 0 0 0 0 0 0 0 0 0 0 0 0 0 0 0 0 0 0 0 0 0 0 0 0 0 0 0 0 0 0 0 0 0 0 0 0 0 0 0 0 0 0 0 0 0 0 0 0 0 0 0 0 0 0 0 0 0 0 0 0 0 0 0 0 0 0 0 0 0 0 0 0 0 0 0 0 0 0 0 0 0 0 0 0 0 0 0 0 0 0 0 2599 2599 2599 2619 2619 2619 2619 2619 2619 2599 2599 2599 2599 2599 2599 2599 2599 2599 2599 2599 2619 2619 2619 2619 2599 2599 2599 2599 2599 2599 2599 2599 2599 2599 2599 2580 2599 2580 2580 2580 2580 2580 2599 2599 2599 2599 2599 2599 2599 2599 2599 2599 2599 2599 2599 2599 2599 2599 2599 2599 2599 2599 2599 2599 2599 2599 2599 2599 2599 2599 2599 2599 2599 2599 2599 2599 2619 2619 2599 2599 2599 2580 2580 2580 2580 2580 2599 2599 2599 2599 2599 2599 2599 2599 2599 2599 2580 2599 2580 2580 2560 2560 2560 2580 2560 2560 2580 2580 2580 2580 2580 2580 2580 2560 2560 2560 2560 2560 2560 2560 2560 2560 2560 2560 2580 2580 2580 2580 2580 2580 2580 2580 2580 2580 2580 2580 2580 2580 2580 2580 2580 2580 2580 2580 2580 2580 2560 2560 2560 2560 2560 2580 2580 2580 2580 2580 2599 2599 2580 2580 2560 2560 2560 1998 1986 1975 1975 1975 1975 1975 1964 1952 1952 1941 1941 1931 1931 1931 1931 1931 1920 1920 1920 1909 1909 1909 1899 1899 1899 1899 1888 1888 1888 1888 1888 1888 1888 1888 1888 1888 1888 1888 1888 1888 1888 1888 1888 1888 1888 1888 1888 1888 1888 1888 1888 1888 1888 1878 1878 1888 1888 1878 1878 1888 1878 1888 1888 1888 1888 1888 1899 1899 1899 1909 1909 1909 1909 1909 1909 1909 1909 1909 1920 1920 1920 1920 1931 1931 1931 1931 1941 1952 1952 1952 1964 1964 1964 1975 1975 1975 1975 1986 1998 2009 2021 0 0 0 0 0 2599 2599 2599 2599 2599 2580 2580 2580 2580 2580 2560 2560 2560 2560 2560 2560 2560 2560 2580 2580 2580 2580 2599 2580 2599 2580 2580 2580 2580 2580 2580 2580 2599 2599 2599 2599 2599 2599 2599 2599 2599 2599 2599 2580 2580 2599 2599 2599 2580 2560 2580 2560 2580 2580 2580 2580 2580 2599 2599 2599 2580 2599 2599 2599 2599 2599 2599 2599 2599 2599 2599 2599 2599 2599 2599 2599 2599 2599 2599 2599 2599 2580 2580 2580 2580 2560 2542 2542 2542 2542 2542 2542 2580 2580 2599 2599 2580 2599 2599 2599 2580 2580 2560 2580 2580 2580 2580 2580 2580 2580 2580 2580 2580 2580 2580 2580 2580 2580 2580 2580 2580 2580 2580 2580 2580 2580 2580 2580 2580 2580 2580 2580 2580 2580 2580 2580 2580 2580 2580 2599 2599 2599 2580 2580 2580 2580 2580 2580 2580 2580 2580 2599 2580 2599 2580 2580 2580 2580 2599 2599 2599 2599 2599 2599 2599 2599 2599 2599 2619 2599 2599 2580 2580 2580 2580 2580 2580 2580 2580 2580 2599 2599 2599 2599 2599 2599 2619 2619 2599 2599 2580 2580 2580 2580 2580 2580 2580 2580 2580 2580 2580 2580 2580 2580 2580 2580 2580 2580 2580 2580 2580 2560 2560 2580 2580 2580 2580 2580 2580 2580 2580 2580 2580 2560 2560 2580 2560 2560 2560 2542 2542 2542 2523 2523 2505 2505 2505 2523 2505 2505
    0 0 0 0 0 0 0 0 0 0 0 0 0 0 0 0 0 0 0 0 0 0 0 0 0 0 0 0 0 0 0 0 0 0 0 0 0 0 0 0 0 0 0 0 0 0 0 0 0 0 0 0 0 0 0 0 0 0 0 0 0 0 0 0 0 0 0 0 0 0 0 0 0 0 0 0 0 0 0 0 0 0 0 0 0 0 0 0 0 0 0 0 0 0 0 0 0 0 0 0 0 0 0 0 0 0 0 0 0 0 0 0 0 0 0 0 0 0 0 0 0 0 0 0 0 0 0 0 0 0 2599 2619 2619 2619 2619 2619 2619 2619 2619 2599 2599 2599 2599 2599 2599 2599 2599 2599 2619 2619 2619 2619 2619 2619 2619 2599 2599 2599 2599 2599 2599 2599 2599 2599 2599 2599 2599 2599 2599 2580 2580 2599 2599 2599 2599 2599 2599 2599 2599 2599 2619 2619 2619 2619 2619 2599 2599 2599 2599 2599 2599 2599 2599 2599 2599 2599 2599 2599 2599 2599 2599 2599 2619 2619 2619 2599 2599 2619 2599 2599 2599 2580 2599 2599 2599 2599 2599 2599 2599 2599 2599 2599 2599 2599 2599 2599 2599 2599 2599 2599 2580 2580 2580 2580 2580 2580 2580 2580 2580 2580 2580 2580 2580 2560 2560 2560 2560 2560 2560 2560 2560 2560 2580 2580 2580 2580 2580 2580 2580 2580 2580 2580 2580 2580 2580 2599 2580 2580 2580 2580 2580 2580 2580 2580 2580 2580 2580 2580 2580 2580 2580 2580 2580 2580 2580 2580 2580 2599 2580 2580 2560 2021 2009 1998 1986 1975 1975 1975 1964 1964 1952 1952 1941 1941 1931 1931 1931 1931 1931 1920 1920 1920 1909 1909 1909 1909 1899 1899 1899 1899 1888 1888 1888 1888 1888 1888 1888 1888 1888 1888 1888 1888 1888 1888 1888 1888 1888 1888 1888 1888 1888 1888 1888 1888 1888 1888 1878 1878 1878 1878 1878 1878 1878 1878 1878 1878 1888 1888 1888 1888 1888 1899 1899 1899 1899 1909 1909 1909 1909 1909 1909 1909 1920 1920 1920 1920 1931 1931 1931 1931 1931 1941 1952 1952 1952 1964 1964 1964 1964 1975 1975 1986 1998 2009 2021 2021 0 0 0 0 2599 2619 2580 2599 2599 2580 2599 2580 2599 2580 2580 2580 2560 2580 2580 2580 2580 2560 2580 2580 2580 2580 2580 2580 2599 2599 2599 2580 2580 2599 2599 2599 2599 2599 2599 2599 2619 2599 2599 2599 2599 2599 2599 2599 2599 2599 2599 2599 2599 2580 2580 2580 2599 2580 2580 2599 2580 2599 2599 2599 2599 2599 2599 2599 2599 2599 2599 2599 2599 2599 2599 2599 2599 2599 2599 2599 2599 2599 2599 2599 2599 2599 2599 2599 2599 2599 2599 2542 2560 2542 2560 2560 2580 2599 2599 2599 2599 2599 2599 2599 2580 2580 2580 2580 2580 2580 2580 2580 2580 2580 2580 2580 2580 2580 2580 2580 2580 2580 2580 2580 2580 2580 2580 2580 2580 2580 2580 2580 2599 2580 2580 2580 2580 2580 2580 2599 2580 2599 2599 2599 2599 2599 2599 2580 2580 2580 2580 2599 2580 2580 2599 2599 2580 2599 2599 2580 2599 2599 2599 2599 2599 2599 2599 2599 2599 2619 2619 2619 2619 2619 2599 2599 2599 2599 2599 2599 2580 2580 2580 2599 2599 2599 2599 2619 2619 2619 2619 2619 2619 2599 2580 2580 2580 2580 2580 2580 2580 2580 2580 2599 2580 2580 2580 2580 2580 2580 2580 2580 2580 2580 2580 2560 2560 2580 2560 2580 2580 2580 2580 2580 2580 2580 2580 2560 2580 2580 2580 2580 2560 2560 2542 2542 2542 2523 2523 2523 2523 2523 2523 2505
    0 0 0 0 0 0 0 0 0 0 0 0 0 0 0 0 0 0 0 0 0 0 0 0 0 0 0 0 0 0 0 0 0 0 0 0 0 0 0 0 0 0 0 0 0 0 0 0 0 0 0 0 0 0 0 0 0 0 0 0 0 0 0 0 0 0 0 0 0 0 0 0 0 0 0 0 0 0 0 0 0 0 0 0 0 0 0 0 0 0 0 0 0 0 0 0 0 0 0 0 0 0 0 0 0 0 0 0 0 0 0 0 0 0 0 0 0 0 0 0 0 0 0 0 0 0 0 0 0 0 2599 2619 2619 2619 2619 2619 2619 2619 2619 2599 2599 2599 2599 2599 2619 2619 2619 2619 2619 2619 2619 2619 2619 2619 2619 2619 2599 2599 2599 2599 2599 2599 2599 2599 2599 2599 2599 2599 2599 2599 2599 2599 2599 2599 2599 2599 2599 2619 2619 2619 2619 2619 2619 2619 2619 2599 2599 2599 2599 2599 2599 2599 2599 2599 2599 2599 2599 2599 2599 2619 2619 2619 2619 2619 2619 2619 2599 2619 2619 2599 2599 2599 2599 2599 2599 2599 2599 2599 2619 2599 2599 2599 2599 2599 2599 2599 2599 2599 2599 2599 2580 2580 2580 2580 2580 2580 2580 2580 2580 2580 2580 2580 2580 2580 2560 2560 2560 2560 2560 2560 2560 2580 2580 2580 2580 2580 2580 2580 2599 2599 2599 2599 2599 2599 2599 2599 2599 2599 2599 2599 2580 2580 2580 2580 2580 2580 2580 2580 2580 2580 2580 2580 2580 2580 2580 2580 2599 2580 2560 2560 2560 2009 1998 1986 1986 1975 1964 1964 1964 1952 1952 1941 1941 1941 1931 1931 1931 1931 1931 1920 1920 1920 1909 1909 1909 1899 1899 1899 1899 1899 1888 1888 1888 1888 1888 1888 1888 1888 1888 1888 1888 1888 1888 1888 1888 1888 1888 1888 1888 1888 1888 1888 1888 1888 1888 1888 1888 1878 1878 1878 1878 1878 1878 1878 1878 1878 1888 1888 1888 1888 1888 1888 1888 1899 1899 1899 1909 1909 1909 1909 1909 1909 1920 1920 1920 1920 1920 1931 1931 1931 1931 1941 1941 1952 1952 1964 1964 1964 1964 1964 1975 1975 1986 2009 2009 2021 0 0 0 0 0 2619 2599 2599 2619 2599 2599 2599 2599 2599 2599 2580 2580 2599 2580 2580 2580 2580 2580 2580 2599 2599 2599 2599 2599 2599 2599 2599 2599 2599 2599 2599 2599 2599 2599 2619 2619 2599 2599 2599 2599 2599 2599 2599 2599 2599 2599 2599 2599 2599 2599 2599 2599 2599 2580 2599 2599 2599 2599 2599 2599 2599 2599 2599 2599 2599 2619 2599 2599 2599 2599 2599 2599 2599 2599 2599 2599 2599 2599 2599 2599 2599 2599 2599 2599 2599 2599 2560 2560 2542 2580 2580 2599 2599 2599 2599 2599 2599 2599 2599 2580 2580 2580 2580 2580 2580 2580 2580 2580 2580 2580 2580 2580 2580 2580 2580 2580 2580 2580 2580 2580 2580 2580 2580 2580 2580 2580 2580 2580 2580 2580 2580 2580 2580 2580 2599 2599 2599 2599 2599 2599 2599 2599 2580 2599 2599 2599 2599 2599 2599 2599 2599 2599 2599 2599 2599 2599 2599 2599 2599 2619 2599 2599 2599 2599 2599 2599 2599 2619 2619 2619 2599 2599 2599 2599 2599 2580 2599 2599 2599 2619 2619 2599 2619 2619 2619 2639 2619 2599 2599 2580 2580 2580 2599 2580 2580 2599 2599 2599 2599 2599 2599 2580 2599 2599 2599 2580 2580 2580 2580 2580 2560 2560 2580 2560 2560 2580 2580 2580 2580 2580 2580 2580 2560 2580 2580 2580 2580 2560 2560 2560 2542 2542 2542 2523 2523 2523 2542 2523 2505
    0 0 0 0 0 0 0 0 0 0 0 0 0 0 0 0 0 0 0 0 0 0 0 0 0 0 0 0 0 0 0 0 0 0 0 0 0 0 0 0 0 0 0 0 0 0 0 0 0 0 0 0 0 0 0 0 0 0 0 0 0 0 0 0 0 0 0 0 0 0 0 0 0 0 0 0 0 0 0 0 0 0 0 0 0 0 0 0 0 0 0 0 0 0 0 0 0 0 0 0 0 0 0 0 0 0 0 0 0 0 0 0 0 0 0 0 0 0 0 0 0 0 0 0 0 0 0 0 0 0 2599 2619 2619 2619 2639 2639 2619 2639 2639 2619 2619 2619 2619 2619 2619 2619 2619 2619 2619 2619 2619 2619 2619 2619 2619 2619 2619 2619 2599 2599 2619 2619 2619 2619 2599 2599 2619 2619 2599 2599 2599 2599 2599 2599 2599 2599 2619 2619 2619 2619 2619 2619 2619 2619 2619 2599 2599 2599 2599 2599 2599 2599 2599 2599 2599 2599 2599 2599 2619 2599 2619 2619 2619 2619 2619 2619 2599 2619 2599 2599 2599 2580 2599 2599 2599 2599 2599 2599 2599 2599 2599 2599 2599 2599 2599 2599 2599 2599 2599 2599 2580 2580 2580 2580 2580 2580 2599 2599 2599 2599 2599 2580 2580 2580 2580 2580 2580 2580 2580 2580 2580 2580 2580 2580 2580 2599 2599 2599 2599 2599 2599 2599 2599 2599 2599 2599 2599 2599 2599 2599 2580 2580 2580 2580 2580 2580 2580 2580 2580 2580 2599 2599 2580 2580 2599 2580 2599 2580 2560 2021 2021 2009 1998 1986 1975 1964 1952 1952 1952 1941 1941 1941 1931 1931 1931 1931 1920 1920 1920 1920 1909 1909 1909 1899 1909 1899 1899 1899 1899 1899 1888 1888 1888 1888 1888 1888 1878 1878 1888 1878 1878 1888 1888 1888 1888 1888 1888 1888 1888 1888 1888 1888 1888 1888 1888 1878 1878 1878 1878 1878 1878 1878 1878 1878 1878 1878 1888 1888 1888 1888 1888 1888 1888 1899 1899 1899 1899 1899 1909 1909 1909 1920 1920 1920 1920 1920 1920 1920 1920 1931 1931 1931 1941 1952 1952 1952 1964 1964 1964 1964 1964 1975 1975 1998 2009 2009 2021 2021 0 0 0 0 2599 2599 2619 2619 2599 2599 2599 2599 2599 2580 2580 2599 2580 2599 2580 2580 2580 2599 2599 2599 2599 2599 2599 2599 2619 2599 2599 2599 2599 2599 2599 2599 2599 2599 2619 2599 2599 2599 2599 2599 2599 2599 2599 2599 2619 2599 2599 2599 2580 2580 2580 2580 2599 2599 2599 2599 2599 2599 2599 2599 2599 2599 2599 2619 2619 2619 2619 2599 2599 2599 2599 2599 2599 2599 2599 2599 2599 2599 2599 2599 2599 2599 2599 2599 2599 2599 2599 2599 2599 2599 2599 2599 2599 2599 2599 2599 2599 2599 2580 2580 2580 2580 2580 2580 2580 2580 2580 2580 2580 2599 2599 2580 2580 2599 2599 2599 2580 2580 2580 2580 2580 2580 2580 2580 2599 2599 2599 2580 2599 2599 2599 2599 2599 2599 2599 2599 2599 2599 2599 2619 2599 2599 2599 2599 2599 2599 2599 2599 2599 2599 2599 2599 2599 2599 2599 2599 2599 2599 2599 2599 2599 2599 2599 2619 2619 2619 2619 2619 2619 2619 2599 2599 2599 2599 2580 2599 2599 2599 2619 2619 2599 2619 2619 2619 2639 2619 2619 2619 2599 2580 2580 2599 2580 2599 2619 2599 2619 2619 2619 2599 2599 2599 2599 2580 2580 2580 2580 2580 2580 2560 2560 2580 2560 2580 2580 2580 2580 2580 2580 2580 2580 2560 2580 2580 2580 2580 2560 2560 2560 2542 2560 2542 2523 2523 2542 2542 2523 2523
    0 0 0 0 0 0 0 0 0 0 0 0 0 0 0 0 0 0 0 0 0 0 0 0 0 0 0 0 0 0 0 0 0 0 0 0 0 0 0 0 0 0 0 0 0 0 0 0 0 0 0 0 0 0 0 0 0 0 0 0 0 0 0 0 0 0 0 0 0 0 0 0 0 0 0 0 0 0 0 0 0 0 0 0 0 0 0 0 0 0 0 0 0 0 0 0 0 0 0 0 0 0 0 0 0 0 0 0 0 0 0 0 0 0 0 0 0 0 0 0 0 0 0 0 0 0 0 0 0 0 2619 2619 2639 2639 2639 2639 2639 2639 2639 2619 2619 2619 2619 2619 2619 2619 2639 2639 2639 2639 2639 2639 2639 2639 2619 2619 2619 2619 2619 2619 2619 2619 2619 2619 2619 2599 2599 2599 2599 2599 2599 2599 2599 2619 2619 2619 2619 2619 2639 2639 2639 2639 2619 2619 2619 2619 2599 2599 2619 2599 2599 2599 2599 2599 2599 2599 2599 2599 2619 2599 2619 2619 2619 2619 2619 2619 2619 2619 2619 2599 2599 2599 2599 2599 2599 2599 2619 2599 2619 2619 2599 2599 2599 2599 2599 2599 2599 2599 2599 2599 2580 2580 2580 2599 2599 2599 2599 2599 2599 2599 2599 2580 2599 2580 2580 2580 2580 2580 2580 2580 2580 2580 2580 2599 2599 2599 2599 2599 2599 2599 2599 2599 2619 2619 2619 2619 2619 2599 2599 2599 2599 2599 2580 2580 2580 2580 2580 2580 2580 2580 2580 2580 2580 2580 2599 2599 2599 2599 2580 2021 2009 1998 1986 1975 1975 1964 1952 1941 1941 1941 1941 1931 1931 1931 1931 1931 1920 1920 1920 1909 1909 1909 1899 1899 1899 1899 1899 1899 1899 1899 1888 1888 1878 1888 1888 1878 1878 1878 1878 1878 1878 1878 1878 1878 1878 1878 1878 1878 1878 1888 1878 1878 1878 1888 1878 1878 1878 1878 1878 1878 1878 1878 1878 1878 1878 1878 1878 1878 1888 1888 1888 1888 1888 1888 1888 1899 1899 1899 1899 1899 1909 1909 1920 1920 1920 1920 1920 1920 1920 1920 1931 1931 1931 1941 1941 1952 1952 1964 1964 1964 1964 1964 1975 1986 1998 1998 2009 2009 2021 0 0 0 0 2599 2619 2619 2599 2599 2619 2619 2599 2599 2599 2599 2599 2599 2599 2599 2599 2599 2619 2619 2619 2619 2619 2619 2619 2619 2599 2599 2619 2619 2599 2599 2599 2619 2619 2619 2599 2599 2619 2619 2619 2619 2599 2619 2619 2599 2599 2599 2599 2599 2599 2599 2599 2599 2599 2599 2599 2599 2599 2599 2599 2599 2599 2599 2619 2619 2619 2599 2599 2599 2599 2599 2619 2619 2619 2619 2619 2619 2619 2619 2619 2619 2619 2619 2619 2619 2619 2599 2599 2599 2599 2599 2599 2599 2619 2619 2619 2619 2599 2599 2580 2580 2580 2580 2580 2580 2580 2580 2580 2599 2599 2599 2599 2599 2599 2599 2599 2599 2580 2580 2599 2599 2599 2580 2599 2599 2599 2599 2599 2599 2599 2599 2599 2599 2599 2619 2599 2599 2619 2619 2619 2599 2599 2599 2619 2619 2599 2599 2599 2599 2599 2619 2599 2599 2619 2619 2619 2599 2599 2599 2619 2599 2619 2619 2619 2619 2619 2619 2619 2619 2619 2619 2619 2599 2599 2599 2599 2619 2619 2619 2619 2619 2639 2639 2639 2639 2619 2619 2619 2599 2599 2619 2599 2599 2619 2619 2619 2619 2619 2619 2619 2599 2599 2599 2599 2599 2580 2580 2580 2580 2580 2580 2580 2580 2580 2580 2580 2580 2599 2599 2580 2580 2580 2580 2580 2580 2560 2560 2560 2560 2560 2560 2542 2542 2542 2542 2542 2542
    0 0 0 0 0 0 0 0 0 0 0 0 0 0 0 0 0 0 0 0 0 0 0 0 0 0 0 0 0 0 0 0 0 0 0 0 0 0 0 0 0 0 0 0 0 0 0 0 0 0 0 0 0 0 0 0 0 0 0 0 0 0 0 0 0 0 0 0 0 0 0 0 0 0 0 0 0 0 0 0 0 0 0 0 0 0 0 0 0 0 0 0 0 0 0 0 0 0 0 0 0 0 0 0 0 0 0 0 0 0 0 0 0 0 0 0 0 0 0 0 0 0 0 0 0 0 0 0 0 0 2639 2639 2639 2639 2639 2639 2639 2639 2639 2619 2619 2619 2619 2639 2639 2639 2639 2639 2639 2639 2639 2639 2639 2639 2639 2639 2639 2639 2639 2619 2639 2639 2639 2619 2619 2599 2619 2599 2599 2619 2599 2619 2619 2639 2619 2619 2639 2619 2639 2619 2619 2619 2619 2619 2619 2619 2619 2619 2619 2619 2619 2619 2599 2619 2619 2619 2619 2619 2619 2619 2619 2619 2619 2619 2619 2619 2619 2619 2619 2619 2599 2599 2599 2599 2599 2619 2619 2599 2619 2599 2599 2599 2599 2599 2599 2599 2599 2599 2599 2599 2580 2580 2580 2599 2599 2599 2619 2619 2619 2619 2619 2599 2599 2599 2599 2599 2599 2580 2599 2599 2580 2599 2599 2599 2599 2599 2599 2599 2599 2599 2599 2599 2619 2619 2619 2619 2619 2619 2619 2619 2599 2599 2599 2599 2599 2599 2580 2580 2599 2599 2599 2599 2599 2599 2599 2599 2580 2580 2021 2009 1998 1998 1986 1975 1964 1952 1952 1941 1941 1941 1931 1931 1931 1931 1931 1931 1920 1920 1920 1909 1909 1909 1899 1899 1899 1899 1899 1899 1899 1899 1888 1888 1878 1878 1878 1878 1878 1878 1878 1878 1878 1878 1878 1878 1878 1878 1878 1878 1878 1878 1878 1878 1878 1878 1878 1878 1878 1878 1878 1878 1878 1878 1878 1878 1878 1878 1878 1878 1878 1878 1888 1888 1888 1888 1888 1888 1888 1888 1899 1899 1909 1920 1920 1920 1920 1920 1920 1920 1920 1920 1920 1920 1931 1931 1941 1941 1952 1952 1952 1952 1952 1964 1975 1975 1986 1998 1998 2009 2009 2021 2021 0 2619 2619 2619 2619 2619 2619 2619 2619 2599 2599 2599 2599 2599 2599 2599 2599 2599 2599 2619 2619 2619 2619 2619 2619 2619 2619 2619 2599 2619 2619 2619 2599 2619 2619 2619 2619 2619 2619 2619 2619 2619 2619 2619 2619 2619 2599 2599 2619 2599 2619 2619 2599 2619 2619 2619 2619 2599 2599 2599 2619 2619 2599 2599 2599 2619 2619 2619 2619 2599 2619 2599 2619 2619 2619 2619 2619 2619 2619 2619 2619 2619 2619 2619 2619 2619 2619 2619 2619 2599 2599 2599 2599 2619 2619 2619 2619 2619 2619 2599 2599 2599 2599 2580 2599 2580 2580 2580 2580 2599 2599 2599 2599 2599 2599 2599 2599 2599 2599 2599 2599 2599 2599 2599 2599 2599 2599 2599 2599 2619 2599 2619 2580 2599 2599 2599 2619 2599 2599 2599 2599 2599 2599 2599 2599 2619 2619 2599 2599 2599 2619 2619 2619 2619 2619 2619 2639 2639 2619 2619 2639 2619 2619 2619 2619 2619 2619 2619 2619 2639 2619 2619 2619 2619 2619 2599 2599 2599 2619 2639 2619 2619 2639 2639 2639 2639 2639 2619 2619 2599 2599 2599 2599 2599 2619 2619 2619 2619 2619 2619 2619 2619 2619 2599 2599 2599 2599 2599 2599 2580 2580 2580 2580 2580 2580 2580 2580 2580 2599 2599 2619 2599 2580 2580 2580 2560 2580 2560 2560 2560 2560 2560 2560 2560 2542 2542 2560 2542 2542
    0 0 0 0 0 0 0 0 0 0 0 0 0 0 0 0 0 0 0 0 0 0 0 0 0 0 0 0 0 0 0 0 0 0 0 0 0 0 0 0 0 0 0 0 0 0 0 0 0 0 0 0 0 0 0 0 0 0 0 0 0 0 0 0 0 0 0 0 0 0 0 0 0 0 0 0 0 0 0 0 0 0 0 0 0 0 0 0 0 0 0 0 0 0 0 0 0 0 0 0 0 0 0 0 0 0 0 0 0 0 0 0 0 0 0 0 0 0 0 0 0 0 0 0 0 0 0 0 0 0 2639 2639 2659 2659 2659 2659 2639 2659 2659 2639 2639 2639 2639 2639 2659 2659 2659 2659 2639 2639 2639 2639 2659 2639 2639 2639 2639 2659 2639 2639 2639 2639 2639 2619 2619 2599 2619 2599 2599 2599 2599 2639 2639 2639 2639 2639 2639 2639 2639 2639 2639 2639 2619 2619 2619 2619 2619 2619 2619 2619 2619 2619 2619 2619 2619 2619 2619 2619 2619 2619 2619 2619 2619 2619 2639 2639 2619 2619 2619 2619 2619 2599 2599 2619 2619 2619 2619 2619 2619 2619 2599 2599 2599 2599 2599 2599 2599 2599 2599 2599 2580 2580 2580 2599 2599 2619 2599 2619 2619 2619 2619 2599 2599 2599 2599 2599 2599 2599 2599 2599 2599 2599 2599 2599 2599 2599 2619 2599 2619 2619 2619 2619 2619 2639 2639 2619 2619 2619 2619 2619 2599 2599 2599 2599 2599 2599 2599 2599 2599 2599 2599 2599 2599 2599 2599 2599 2580 2580 2009 2009 1998 1986 1986 1964 1964 1952 1941 1941 1941 1931 1931 1931 1931 1931 1931 1931 1920 1920 1920 1909 1909 1909 1909 1899 1909 1909 1899 1899 1899 1899 1888 1888 1878 1878 1878 1878 1878 1878 1878 1878 1878 1878 1878 1878 1878 1878 1878 1878 1878 1878 1878 1878 1878 1878 1878 1878 1878 1878 1878 1878 1878 1878 1878 1878 1878 1878 1878 1878 1878 1878 1878 1878 1888 1888 1888 1888 1888 1888 1899 1899 1909 1909 1920 1920 1920 1920 1920 1920 1920 1920 1920 1920 1931 1931 1931 1941 1941 1952 1952 1952 1964 1964 1975 1975 1986 1998 1998 1998 2009 2009 0 2009 0 2619 2619 2619 2619 2619 2619 2639 2619 2619 2619 2619 2619 2619 2619 2619 2599 2599 2619 2619 2619 2619 2619 2619 2619 2619 2619 2619 2619 2619 2619 2619 2619 2619 2619 2619 2619 2619 2619 2619 2619 2619 2619 2619 2619 2619 2619 2619 2619 2619 2619 2619 2619 2619 2619 2619 2619 2619 2619 2619 2599 2599 2599 2599 2619 2619 2619 2619 2599 2619 2619 2619 2619 2619 2619 2619 2619 2619 2619 2619 2619 2619 2619 2619 2639 2639 2639 2619 2619 2619 2619 2619 2619 2619 2619 2619 2619 2619 2599 2619 2599 2599 2599 2599 2599 2580 2580 2580 2599 2599 2599 2599 2599 2599 2619 2619 2599 2599 2599 2599 2599 2599 2599 2599 2599 2599 2599 2599 2599 2599 2599 2599 2599 2619 2619 2619 2619 2619 2619 2619 2599 2599 2619 2599 2619 2599 2599 2599 2599 2619 2619 2619 2619 2619 2639 2639 2639 2639 2619 2619 2619 2619 2619 2619 2619 2619 2619 2619 2639 2639 2619 2619 2619 2619 2619 2619 2619 2619 2639 2639 2639 2639 2639 2639 2639 2639 2639 2639 2619 2619 2619 2619 2619 2619 2639 2619 2619 2619 2619 2619 2619 2619 2619 2619 2619 2599 2619 2619 2599 2580 2580 2580 2580 2599 2580 2580 2580 2599 2599 2619 2619 2599 2580 2580 2580 2580 2580 2580 2580 2580 2580 2580 2580 2560 2560 2560 2542 2560
    0 0 0 0 0 0 0 0 0 0 0 0 0 0 0 0 0 0 0 0 0 0 0 0 0 0 0 0 0 0 0 0 0 0 0 0 0 0 0 0 0 0 0 0 0 0 0 0 0 0 0 0 0 0 0 0 0 0 0 0 0 0 0 0 0 0 0 0 0 0 0 0 0 0 0 0 0 0 0 0 0 0 0 0 0 0 0 0 0 0 0 0 0 0 0 0 0 0 0 0 0 0 0 0 0 0 0 0 0 0 0 0 0 0 0 0 0 0 0 0 0 0 0 0 0 0 0 0 0 0 2659 2659 2659 2659 2659 2659 2659 2659 2659 2639 2659 2639 2659 2659 2659 2659 2659 2659 2659 2659 2639 2639 2659 2639 2639 2639 2659 2659 2659 2659 2659 2659 2659 2639 2639 2619 2639 2639 2599 2639 2639 2659 2659 2659 2659 2659 2659 2639 2639 2639 2639 2639 2639 2619 2619 2619 2599 2619 2619 2619 2619 2619 2619 2619 2639 2639 2619 2619 2639 2639 2639 2619 2619 2619 2639 2639 2619 2619 2619 2619 2619 2619 2619 2619 2619 2619 2639 2619 2619 2619 2619 2619 2619 2619 2619 2619 2599 2599 2619 2619 2599 2599 2580 2599 2619 2619 2619 2619 2619 2619 2619 2619 2619 2619 2619 2619 2619 2599 2599 2619 2599 2599 2619 2619 2599 2619 2619 2619 2619 2619 2619 2619 2639 2639 2639 2639 2639 2639 2639 2619 2619 2599 2599 2599 2599 2619 2599 2599 2619 2619 2619 2619 2619 2599 2619 2599 2580 2021 2009 2009 1998 1986 1975 1964 1964 1952 1941 1941 1941 1931 1931 1931 1931 1931 1931 1931 1920 1909 1909 1909 1899 1909 1909 1899 1899 1909 1899 1899 1899 1899 1878 1888 1878 1878 1878 1878 1878 1878 1878 1878 1878 1878 1878 1878 1878 1878 1878 1878 1878 1878 1878 1878 1878 1878 1878 1878 1878 1878 1878 1878 1878 1878 1878 1878 1878 1878 1878 1878 1878 1878 1878 1878 1888 1888 1888 1888 1888 1888 1899 1899 1899 1909 1909 1920 1920 1920 1920 1920 1920 1920 1920 1920 1931 1931 1931 1941 1941 1941 1952 1952 1964 1964 1975 1975 1975 1986 1986 1998 1998 1998 2009 0 0 2619 2619 2619 2619 2639 2639 2639 2619 2619 2619 2619 2619 2619 2619 2619 2619 2619 2619 2619 2619 2619 2619 2619 2619 2619 2619 2619 2619 2619 2619 2619 2619 2619 2619 2619 2619 2619 2619 2639 2639 2639 2639 2619 2619 2619 2619 2619 2619 2619 2619 2619 2619 2639 2619 2619 2619 2619 2619 2619 2619 2619 2619 2619 2619 2619 2619 2619 2619 2619 2619 2619 2619 2619 2619 2619 2619 2619 2619 2619 2619 2619 2619 2639 2639 2639 2619 2619 2619 2619 2619 2619 2619 2619 2619 2619 2619 2619 2599 2619 2599 2599 2599 2599 2599 2599 2599 2599 2599 2599 2599 2599 2599 2619 2619 2619 2599 2599 2599 2599 2599 2599 2599 2599 2599 2599 2599 2599 2599 2580 2599 2599 2599 2639 2619 2619 2619 2619 2619 2619 2599 2599 2619 2619 2619 2599 2599 2599 2619 2619 2619 2619 2619 2639 2639 2639 2639 2639 2619 2639 2619 2619 2619 2619 2619 2619 2619 2619 2639 2639 2619 2619 2619 2619 2619 2619 2619 2639 2659 2639 2639 2659 2659 2639 2639 2639 2639 2639 2619 2619 2619 2619 2619 2619 2639 2639 2619 2639 2619 2619 2619 2619 2619 2619 2619 2599 2599 2619 2599 2580 2580 2580 2580 2599 2580 2580 2580 2599 2619 2639 2619 2599 2580 2580 2580 2580 2580 2580 2580 2580 2580 2599 2599 2580 2580 2560 2560 2560
    0 0 0 0 0 0 0 0 0 0 0 0 0 0 0 0 0 0 0 0 0 0 0 0 0 0 0 0 0 0 0 0 0 0 0 0 0 0 0 0 0 0 0 0 0 0 0 0 0 0 0 0 0 0 0 0 0 0 0 0 0 0 0 0 0 0 0 0 0 0 0 0 0 0 0 0 0 0 0 0 0 0 0 0 0 0 0 0 0 0 0 0 0 0 0 0 0 0 0 0 0 0 0 0 0 0 0 0 0 0 0 0 0 0 0 0 0 0 0 0 0 0 0 0 0 0 0 0 0 2659 2659 2659 2680 2680 2680 2680 2680 2680 2680 2659 2659 2659 2659 2659 2659 2659 2659 2659 2659 2659 2659 2659 2659 2659 2659 2659 2659 2659 2659 2659 2659 2659 2659 2639 2619 2619 2619 2599 2599 2639 2639 2659 2659 2659 2659 2659 2659 2659 2659 2639 2639 2639 2659 2619 2619 2619 2619 2619 2619 2639 2619 2639 2639 2639 2639 2639 2639 2639 2639 2639 2639 2619 2619 2619 2639 2619 2619 2619 2639 2639 2639 2639 2639 2639 2639 2639 2639 2639 2639 2639 2619 2619 2619 2619 2619 2619 2619 2619 2619 2619 2599 2599 2599 2619 2619 2639 2619 2639 2619 2639 2639 2619 2619 2619 2619 2619 2619 2619 2619 2619 2619 2619 2619 2619 2619 2619 2619 2619 2619 2619 2619 2619 2639 2639 2639 2639 2639 2639 2639 2639 2639 2619 2619 2619 2619 2619 2619 2619 2619 2619 2619 2619 2619 2619 2599 2580 2021 2009 1998 1998 1986 1975 1964 1964 1952 1941 1941 1941 1931 1931 1931 1931 1931 1931 1920 1920 1920 1909 1909 1909 1899 1899 1899 1899 1899 1899 1899 1899 1899 1899 1878 1888 1878 1878 1878 1878 1878 1878 1878 1878 1878 1878 1878 1878 1878 1878 1878 1878 1878 1878 1878 1878 1878 1878 1878 1878 1878 1878 1878 1878 1878 1878 1878 1878 1878 1878 1878 1878 1878 1878 1878 1878 1878 1888 1888 1888 1888 1888 1888 1899 1899 1899 1899 1909 1909 1920 1920 1920 1920 1920 1920 1920 1931 1931 1931 1931 1941 1941 1952 1952 1964 1964 1975 1975 1975 1975 1986 1986 1986 1998 1998 1998 0 0 0 2619 2639 2639 2639 2639 2619 2639 2619 2619 2619 2619 2619 2619 2619 2619 2619 2639 2639 2639 2639 2639 2639 2639 2639 2619 2619 2619 2619 2619 2619 2619 2619 2619 2619 2619 2639 2619 2619 2619 2639 2639 2639 2619 2619 2639 2619 2639 2619 2619 2639 2639 2639 2619 2639 2619 2639 2639 2639 2619 2619 2619 2619 2619 2619 2619 2619 2619 2619 2619 2619 2639 2639 2639 2639 2619 2639 2639 2639 2619 2639 2639 2639 2639 2639 2639 2619 2619 2619 2619 2619 2619 2619 2619 2619 2619 2599 2619 2619 2599 2599 2599 2599 2599 2599 2599 2599 2599 2599 2599 2599 2619 2619 2639 2619 2619 2619 2599 2599 2599 2599 2599 2599 2599 2599 2599 2599 2599 2599 2599 2599 2599 2619 2639 2639 2639 2599 2639 2619 2599 2639 2619 2619 2599 2599 2599 2619 2599 2619 2619 2619 2639 2659 2659 2639 2639 2639 2639 2619 2599 2599 2599 2619 2619 2619 2639 2639 2659 2619 2639 2619 2619 2619 2619 2619 2619 2639 2639 2639 2639 2659 2659 2659 2659 2659 2659 2639 2639 2639 2639 2639 2639 2639 2639 2639 2639 2639 2619 2619 2619 2619 2619 2619 2619 2619 2619 2599 2599 2599 2599 2599 2599 2599 2599 2599 2599 2619 2619 2619 2599 2580 2599 2580 2580 2580 2599 2599 2599 2599 2599 2599 2599 2580 2560 2560 2560
    0 0 0 0 0 0 0 0 0 0 0 0 0 0 0 0 0 0 0 0 0 0 0 0 0 0 0 0 0 0 0 0 0 0 0 0 0 0 0 0 0 0 0 0 0 0 0 0 0 0 0 0 0 0 0 0 0 0 0 0 0 0 0 0 0 0 0 0 0 0 0 0 0 0 0 0 0 0 0 0 0 0 0 0 0 0 0 0 0 0 0 0 0 0 0 0 0 0 0 0 0 0 0 0 0 0 0 0 0 0 0 0 0 0 0 0 0 0 0 0 0 0 0 0 0 0 0 0 2639 2659 2659 2680 2680 2680 2680 2680 2680 2680 2680 2659 2659 2659 2659 2659 2659 2659 2659 2659 2659 2659 2659 2659 2659 2659 2659 2659 2659 2659 2659 2659 2659 2659 2659 2659 2639 2639 2639 2619 2619 2639 2639 2659 2659 2659 2659 2659 2659 2659 2659 2639 2639 2639 2639 2619 2619 2619 2639 2659 2639 2639 2639 2639 2639 2639 2639 2639 2639 2639 2659 2659 2659 2659 2639 2619 2639 2639 2639 2639 2639 2639 2639 2639 2639 2639 2639 2639 2639 2639 2639 2639 2639 2619 2619 2619 2619 2619 2619 2619 2619 2619 2619 2619 2619 2639 2639 2639 2639 2639 2639 2639 2639 2639 2619 2639 2619 2619 2639 2619 2639 2639 2639 2619 2619 2619 2619 2619 2639 2639 2639 2639 2639 2639 2639 2639 2639 2639 2639 2639 2639 2639 2639 2639 2619 2619 2619 2619 2619 2619 2619 2619 2619 2639 2619 2619 2021 2021 2009 2009 1998 1986 1975 1975 1964 1952 1952 1941 1941 1941 1931 1931 1931 1931 1931 1931 1920 1920 1909 1909 1909 1909 1899 1899 1899 1899 1899 1899 1899 1899 1888 1888 1878 1878 1878 1878 1878 1878 1888 1878 1878 1878 1878 1878 1878 1878 1878 1878 1878 1878 1878 1878 1878 1878 1878 1878 1878 1878 1878 1878 1878 1878 1878 1878 1878 1878 1878 1878 1878 1878 1878 1878 1878 1878 1878 1888 1888 1888 1888 1888 1888 1899 1899 1899 1899 1909 1909 1920 1920 1920 1920 1920 1920 1920 1920 1931 1931 1931 1941 1941 1941 1952 1952 1964 1964 1975 1975 1975 1975 1986 1986 1986 1998 1998 2009 2009 0 0 2639 2639 2659 2659 2639 2659 2639 2639 2639 2639 2639 2639 2619 2619 2639 2639 2639 2639 2659 2639 2659 2659 2659 2619 2619 2619 2619 2619 2619 2619 2619 2639 2639 2639 2619 2639 2639 2639 2659 2659 2639 2639 2639 2659 2639 2639 2639 2639 2639 2639 2639 2639 2639 2639 2639 2639 2639 2639 2619 2639 2639 2619 2619 2619 2619 2619 2619 2619 2639 2639 2639 2639 2639 2639 2639 2639 2639 2619 2639 2619 2639 2639 2639 2619 2619 2619 2619 2619 2639 2619 2639 2639 2619 2619 2599 2599 2599 2599 2599 2599 2599 2599 2599 2599 2599 2599 2599 2619 2619 2619 2639 2639 2619 2619 2619 2619 2619 2599 2599 2580 2599 2599 2599 2599 2599 2599 2599 2599 2599 2599 2599 2639 2639 2619 2599 2599 2599 2599 2619 2619 2619 2599 2619 2619 2619 2619 2619 2639 2639 2659 2659 2659 2659 2659 2639 2639 2639 2619 2619 2619 2619 2619 2639 2639 2639 2659 2639 2639 2619 2619 2619 2619 2619 2639 2639 2639 2639 2659 2659 2659 2659 2659 2659 2659 2639 2639 2639 2639 2639 2639 2639 2639 2639 2639 2639 2619 2639 2619 2619 2619 2619 2619 2619 2619 2599 2599 2580 2599 2619 2619 2599 2619 2580 2599 2599 2619 2619 2580 2580 2599 2599 2599 2599 2599 2599 2599 2599 2599 2599 2599 2599 2580 2560 2560
    0 0 0 0 0 0 0 0 0 0 0 0 0 0 0 0 0 0 0 0 0 0 0 0 0 0 0 0 0 0 0 0 0 0 0 0 0 0 0 0 0 0 0 0 0 0 0 0 0 0 0 0 0 0 0 0 0 0 0 0 0 0 0 0 0 0 0 0 0 0 0 0 0 0 0 0 0 0 0 0 0 0 0 0 0 0 0 0 0 0 0 0 0 0 0 0 0 0 0 0 0 0 0 0 0 0 0 0 0 0 0 0 0 0 0 0 0 0 0 0 0 0 0 0 0 0 0 0 2659 2680 2680 2680 2680 2680 2680 2680 2680 2680 2680 2659 2659 2659 2659 2659 2659 2659 2659 2659 2659 2659 2659 2659 2659 2659 2659 2659 2659 2680 2680 2680 2680 2659 2659 2659 2659 2639 2639 2639 2639 2639 2639 2659 2659 2659 2659 2659 2659 2659 2659 2639 2639 2639 2639 2639 2639 2639 2659 2659 2659 2659 2659 2639 2639 2639 2639 2639 2639 2639 2659 2659 2659 2639 2639 2639 2659 2659 2639 2639 2639 2659 2659 2659 2639 2659 2639 2659 2659 2639 2639 2639 2639 2639 2639 2639 2619 2639 2639 2619 2659 2659 2639 2639 2639 2639 2639 2639 2639 2639 2639 2639 2639 2639 2639 2639 2639 2639 2639 2639 2639 2639 2639 2639 2639 2639 2639 2639 2639 2639 2639 2639 2639 2639 2639 2639 2639 2639 2639 2639 2639 2639 2639 2639 2639 2639 2619 2639 2619 2619 2639 2639 2639 2639 2639 2619 2021 2021 2009 1998 1986 1975 1975 1964 1952 1952 1952 1941 1941 1941 1931 1931 1931 1931 1931 1920 1920 1920 1909 1909 1909 1909 1899 1899 1899 1899 1899 1899 1899 1899 1888 1888 1878 1878 1878 1878 1878 1878 1878 1878 1878 1878 1878 1878 1878 1878 1878 1878 1878 1878 1878 1878 1878 1878 1878 1878 1878 1878 1878 1878 1878 1878 1878 1878 1878 1878 1878 1878 1878 1878 1878 1878 1878 1878 1878 1878 1888 1888 1888 1888 1888 1899 1899 1899 1899 1899 1909 1909 1909 1920 1920 1920 1920 1920 1920 1920 1931 1931 1931 1931 1941 1952 1952 1964 1964 1964 1975 1975 1975 1975 1986 1986 1998 1998 2009 2009 0 2639 0 2639 2659 2659 2639 2659 2639 2639 2639 2639 2639 2639 2639 2619 2639 2639 2659 2659 2659 2639 2659 2659 2659 2639 2639 2639 2639 2639 2639 2639 2619 2639 2639 2639 2619 2639 2639 2639 2659 2659 2659 2659 2659 2659 2659 2659 2639 2639 2639 2639 2639 2639 2639 2639 2639 2639 2639 2639 2639 2639 2639 2639 2639 2639 2639 2639 2639 2639 2639 2659 2659 2659 2659 2659 2659 2659 2659 2639 2639 2619 2639 2639 2639 2639 2639 2639 2639 2639 2659 2639 2639 2639 2619 2619 2619 2599 2599 2599 2599 2599 2599 2599 2599 2599 2599 2599 2619 2619 2619 2639 2639 2639 2639 2639 2619 2619 2599 2599 2599 2580 2599 2599 2599 2599 2599 2599 2599 2599 2619 2619 2639 2639 2619 2619 2619 2619 2599 2619 2619 2619 2619 2619 2619 2619 2639 2639 2639 2639 2639 2639 2659 2659 2659 2659 2639 2659 2639 2639 2639 2639 2639 2639 2639 2639 2659 2659 2639 2659 2639 2639 2639 2619 2619 2619 2639 2639 2639 2659 2659 2659 2659 2659 2659 2680 2659 2659 2659 2659 2659 2659 2639 2639 2639 2639 2619 2619 2639 2639 2619 2619 2619 2639 2619 2619 2619 2599 2619 2619 2619 2619 2619 2619 2619 2599 2599 2619 2599 2580 2599 2599 2599 2599 2599 2599 2619 2599 2599 2619 2619 2619 2619 2580 2580 2560
    0 0 0 0 0 0 0 0 0 0 0 0 0 0 0 0 0 0 0 0 0 0 0 0 0 0 0 0 0 0 0 0 0 0 0 0 0 0 0 0 0 0 0 0 0 0 0 0 0 0 0 0 0 0 0 0 0 0 0 0 0 0 0 0 0 0 0 0 0 0 0 0 0 0 0 0 0 0 0 0 0 0 0 0 0 0 0 0 0 0 0 0 0 0 0 0 0 0 0 0 0 0 0 0 0 0 0 0 0 0 0 0 0 0 0 0 0 0 0 0 0 0 0 0 0 0 0 0 2680 2680 2680 2701 2701 2701 2680 2680 2680 2680 2701 2659 2659 2659 2659 2659 2659 2659 2659 2659 2659 2659 2659 2659 2659 2659 2659 2659 2659 2659 2680 2680 2680 2680 2680 2659 2659 2659 2639 2639 2639 2639 2639 2659 2659 2659 2659 2659 2659 2659 2659 2659 2659 2659 2659 2659 2659 2659 2659 2659 2659 2659 2659 2659 2659 2659 2659 2659 2659 2639 2659 2659 2659 2639 2639 2639 2659 2659 2659 2659 2659 2659 2659 2659 2659 2659 2659 2659 2659 2659 2639 2639 2639 2639 2639 2639 2639 2639 2639 2659 2659 2659 2639 2639 2639 2639 2639 2639 2639 2639 2639 2639 2639 2639 2639 2639 2639 2639 2639 2639 2639 2639 2639 2639 2639 2639 2639 2639 2639 2639 2639 2639 2639 2639 2639 2639 2639 2639 2639 2639 2659 2659 2659 2639 2639 2639 2639 2639 2639 2639 2639 2639 2639 2639 2639 2009 2009 2009 1998 1986 1975 1975 1964 1964 1964 1952 1952 1941 1941 1941 1931 1931 1931 1931 1931 1920 1920 1920 1920 1909 1909 1909 1899 1899 1899 1899 1899 1899 1899 1899 1888 1888 1878 1878 1878 1878 1878 1878 1878 1878 1878 1878 1878 1878 1878 1878 1878 1878 1878 1878 1878 1878 1878 1878 1878 1878 1878 1878 1878 1878 1878 1878 1878 1878 1878 1878 1878 1878 1878 1878 1878 1878 1878 1878 1878 1878 1878 1888 1888 1888 1888 1888 1888 1899 1899 1899 1909 1909 1920 1920 1920 1920 1920 1920 1920 1931 1931 1931 1931 1931 1941 1952 1952 1964 1964 1964 1975 1975 1975 1975 1986 1986 1986 1998 1998 2009 0 0 2639 2639 2659 2659 2659 2659 2639 2639 2639 2639 2639 2639 2639 2639 2639 2659 2659 2659 2659 2659 2659 2659 2659 2659 2639 2639 2639 2639 2639 2659 2639 2659 2659 2659 2659 2659 2680 2680 2680 2680 2680 2659 2659 2659 2659 2659 2659 2639 2639 2639 2639 2639 2639 2639 2639 2639 2639 2639 2639 2639 2639 2639 2639 2639 2639 2639 2639 2639 2639 2659 2659 2659 2659 2659 2659 2659 2659 2639 2639 2639 2639 2639 2639 2639 2639 2639 2639 2659 2659 2659 2659 2659 2639 2639 2619 2619 2619 2599 2599 2619 2599 2619 2619 2599 2599 2599 2619 2619 2619 2639 2639 2639 2639 2639 2639 2619 2599 2599 2599 2599 2599 2599 2599 2599 2599 2599 2599 2599 2659 2659 2639 2639 2619 2619 2619 2619 2599 2599 2619 2619 2619 2619 2599 2599 2659 2639 2639 2639 2639 2659 2659 2659 2659 2659 2659 2659 2659 2639 2639 2639 2639 2639 2639 2639 2659 2659 2639 2659 2639 2639 2639 2639 2639 2639 2639 2639 2659 2659 2659 2659 2659 2680 2659 2680 2659 2659 2659 2659 2639 2659 2659 2659 2639 2639 2639 2619 2639 2639 2639 2639 2639 2639 2639 2639 2639 2639 2639 2639 2639 2639 2639 2639 2639 2619 2619 2619 2619 2580 2599 2599 2599 2619 2619 2619 2619 2619 2619 2639 2639 2639 2639 2619 2599 2580
    0 0 0 0 0 0 0 0 0 0 0 0 0 0 0 0 0 0 0 0 0 0 0 0 0 0 0 0 0 0 0 0 0 0 0 0 0 0 0 0 0 0 0 0 0 0 0 0 0 0 0 0 0 0 0 0 0 0 0 0 0 0 0 0 0 0 0 0 0 0 0 0 0 0 0 0 0 0 0 0 0 0 0 0 0 0 0 0 0 0 0 0 0 0 0 0 0 0 0 0 0 0 0 0 0 0 0 0 0 0 0 0 0 0 0 0 0 0 0 0 0 0 0 0 0 0 0 0 2680 2701 2680 2701 2701 2701 2680 2701 2680 2680 2701 2659 2659 2659 2659 2659 2680 2659 2659 2659 2659 2659 2659 2659 2659 2659 2659 2659 2659 2659 2680 2680 2680 2680 2680 2659 2659 2659 2659 2659 2659 2659 2659 2659 2659 2659 2659 2659 2659 2659 2659 2659 2659 2659 2659 2659 2659 2659 2659 2659 2659 2659 2659 2659 2659 2659 2659 2659 2659 2659 2659 2659 2659 2659 2659 2659 2659 2659 2659 2659 2659 2659 2659 2659 2659 2659 2659 2659 2659 2659 2659 2659 2659 2659 2659 2659 2659 2659 2659 2659 2659 2659 2639 2639 2639 2639 2639 2639 2639 2639 2639 2639 2639 2639 2639 2639 2639 2639 2639 2639 2639 2639 2659 2659 2639 2639 2639 2639 2639 2639 2639 2659 2659 2659 2659 2659 2659 2659 2659 2659 2659 2659 2659 2659 2639 2639 2639 2639 2639 2639 2639 2639 2659 2659 2659 1998 1998 1998 1986 1986 1975 1964 1964 1964 1952 1952 1952 1941 1941 1941 1931 1931 1931 1920 1931 1920 1909 1909 1909 1909 1899 1899 1899 1899 1899 1899 1899 1899 1899 1899 1888 1888 1878 1878 1878 1878 1878 1878 1878 1878 1878 1878 1878 1878 1878 1878 1878 1878 1878 1878 1878 1878 1878 1878 1878 1878 1878 1878 1878 1878 1878 1878 1878 1878 1878 1878 1878 1878 1878 1878 1878 1878 1878 1878 1878 1878 1878 1878 1888 1888 1888 1888 1888 1888 1888 1899 1899 1899 1909 1909 1920 1920 1920 1920 1920 1931 1931 1931 1931 1931 1941 1941 1952 1964 1964 1964 1975 1975 1975 1975 1975 1986 1986 1986 1998 2009 0 0 0 2680 0 2680 2659 2659 2639 2639 2639 2639 2639 2639 2639 2639 2639 2659 2659 2659 2659 2659 2659 2680 2680 2659 2659 2659 2659 2659 2659 2659 2659 2659 2659 2659 2659 2680 2680 2680 2680 2680 2680 2680 2659 2659 2659 2659 2659 2659 2659 2659 2659 2659 2659 2659 2659 2659 2659 2659 2659 2639 2639 2639 2639 2639 2639 2659 2639 2659 2659 2659 2659 2680 2680 2659 2659 2659 2659 2639 2639 2639 2639 2639 2639 2639 2639 2639 2659 2659 2659 2659 2659 2639 2659 2639 2619 2599 2599 2599 2599 2599 2599 2599 2599 2599 2599 2599 2599 2599 2619 2639 2659 2659 2659 2639 2639 2639 2619 2599 2599 2599 2599 2619 2619 2619 2619 2659 2659 2659 2659 2659 2659 2659 2619 2619 2619 2619 2619 2619 2659 2659 2659 2639 2639 2639 2659 2659 2639 2639 2639 2659 2659 2659 2659 2659 2659 2659 2659 2659 2659 2639 2659 2639 2639 2659 2659 2659 2639 2659 2639 2639 2659 2639 2659 2659 2659 2659 2659 2659 2680 2680 2680 2680 2680 2680 2659 2680 2659 2659 2659 2659 2659 2659 2659 2639 2639 2639 2659 2639 2639 2639 2639 2659 2659 2659 2639 2619 2659 2639 2639 2659 2659 2659 2639 2659 2639 2619 2619 2580 2580 2580 2599 2619 2619 2619 2619 2639 2639 2639 2639 2639 2639 2619 2599 2580
    0 0 0 0 0 0 0 0 0 0 0 0 0 0 0 0 0 0 0 0 0 0 0 0 0 0 0 0 0 0 0 0 0 0 0 0 0 0 0 0 0 0 0 0 0 0 0 0 0 0 0 0 0 0 0 0 0 0 0 0 0 0 0 0 0 0 0 0 0 0 0 0 0 0 0 0 0 0 0 0 0 0 0 0 0 0 0 0 0 0 0 0 0 0 0 0 0 0 0 0 0 0 0 0 0 0 0 0 0 0 0 0 0 0 0 0 0 0 0 0 0 0 0 0 0 0 0 0 2701 2701 2701 2701 2701 2701 2701 2701 2701 2701 2701 2680 2680 2659 2659 2680 2680 2659 2659 2659 2659 2659 2659 2659 2659 2659 2659 2659 2659 2680 2680 2680 2680 2680 2680 2680 2680 2680 2659 2659 2659 2659 2659 2659 2659 2659 2659 2659 2680 2659 2680 2680 2680 2680 2680 2659 2659 2659 2659 2659 2659 2659 2659 2659 2659 2659 2659 2659 2659 2659 2659 2659 2659 2659 2659 2659 2659 2659 2659 2659 2659 2659 2659 2659 2659 2659 2659 2659 2659 2659 2659 2659 2659 2659 2659 2659 2659 2659 2659 2659 2659 2659 2639 2639 2659 2639 2639 2639 2639 2639 2639 2639 2639 2639 2639 2639 2639 2639 2639 2639 2659 2659 2659 2659 2659 2659 2659 2659 2659 2659 2659 2659 2659 2659 2659 2659 2659 2659 2659 2659 2659 2659 2659 2659 2639 2659 2639 2659 2659 2659 2659 2659 2659 2659 1998 1998 1998 1998 1986 1975 1964 1964 1964 1952 1952 1952 1941 1941 1941 1941 1931 1931 1931 1920 1920 1920 1909 1909 1909 1899 1899 1899 1899 1899 1899 1899 1899 1899 1899 1899 1899 1888 1878 1878 1878 1878 1878 1878 1878 1878 1878 1878 1878 1878 1878 1878 1878 1878 1878 1878 1878 1878 1878 1878 1878 1878 1878 1878 1878 1878 1878 1878 1878 1878 1878 1878 1878 1888 1878 1878 1878 1878 1878 1878 1878 1878 1878 1878 1888 1888 1888 1888 1888 1888 1888 1888 1899 1899 1909 1909 1909 1920 1920 1920 1920 1920 1931 1931 1931 1931 1941 1952 1952 1964 1964 1964 1964 1975 1975 1975 1975 1975 1986 1986 1998 1998 0 0 0 0 0 2680 2659 2659 2639 2639 2639 2639 2659 2659 2639 2639 2659 2659 2680 2680 2680 2659 2680 2680 2680 2680 2659 2659 2659 2680 2659 2680 2659 2659 2680 2680 2680 2680 2680 2680 2701 2701 2680 2680 2680 2680 2680 2680 2659 2659 2659 2659 2659 2659 2659 2659 2659 2659 2659 2659 2680 2659 2659 2659 2659 2659 2659 2659 2659 2659 2659 2680 2680 2680 2680 2680 2659 2680 2659 2659 2659 2639 2639 2639 2659 2639 2639 2639 2659 2659 2680 2680 2680 2680 2680 2659 2619 2639 2619 2599 2599 2619 2619 2619 2619 2619 2599 2599 2619 2619 2619 2639 2659 2659 2659 2639 2659 2659 2659 2619 2619 2619 2619 2619 2680 2619 2619 2659 2659 2659 2659 2659 2659 2659 2619 2639 2619 2639 2619 2619 2659 2659 2659 2659 2659 2639 2659 2639 2639 2639 2639 2659 2659 2659 2659 2659 2659 2659 2659 2659 2659 2659 2659 2659 2639 2659 2659 2659 2659 2659 2659 2659 2659 2659 2659 2659 2680 2659 2680 2680 2680 2680 2680 2680 2680 2680 2659 2659 2659 2659 2659 2659 2659 2659 2659 2659 2659 2659 2659 2659 2659 2659 2659 2659 2659 2659 2639 2639 2639 2659 2659 2659 2659 2659 2659 2659 2639 2659 2659 2619 2580 2599 2619 2619 2639 2639 2619 2619 2619 2639 2639 2639 2639 2619 2619 2580
    0 0 0 0 0 0 0 0 0 0 0 0 0 0 0 0 0 0 0 0 0 0 0 0 0 0 0 0 0 0 0 0 0 0 0 0 0 0 0 0 0 0 0 0 0 0 0 0 0 0 0 0 0 0 0 0 0 0 0 0 0 0 0 0 0 0 0 0 0 0 0 0 0 0 0 0 0 0 0 0 0 0 0 0 0 0 0 0 0 0 0 0 0 0 0 0 0 0 0 0 0 0 0 0 0 0 0 0 0 0 0 0 0 0 0 0 0 0 0 0 0 0 0 0 0 0 0 0 2701 2722 2722 2722 2722 2701 2701 2701 2701 2701 2701 2680 2680 2659 2659 2680 2680 2659 2659 2659 2659 2659 2680 2659 2680 2659 2659 2680 2680 2680 2680 2680 2680 2680 2680 2680 2680 2680 2680 2659 2659 2659 2659 2659 2659 2659 2680 2680 2680 2680 2680 2680 2680 2680 2680 2680 2659 2680 2659 2680 2659 2659 2659 2659 2659 2680 2680 2659 2659 2659 2659 2680 2680 2659 2680 2680 2659 2680 2680 2680 2659 2659 2659 2659 2659 2659 2659 2659 2659 2659 2659 2659 2659 2659 2659 2659 2659 2659 2659 2659 2659 2659 2659 2659 2659 2659 2659 2659 2659 2659 2659 2659 2659 2659 2659 2659 2659 2659 2659 2659 2659 2659 2659 2659 2659 2659 2659 2659 2659 2659 2659 2659 2659 2659 2659 2659 2659 2659 2659 2639 2659 2659 2659 2659 2659 2659 2659 2659 2659 2659 2659 2659 2680 2680 1998 1998 1998 1998 1986 1975 1964 1964 1964 1952 1952 1952 1941 1941 1941 1941 1931 1931 1920 1920 1920 1920 1909 1909 1909 1899 1899 1899 1899 1899 1899 1899 1899 1899 1899 1899 1888 1888 1878 1878 1878 1878 1878 1878 1878 1878 1878 1878 1878 1878 1878 1878 1878 1878 1878 1878 1878 1878 1878 1878 1878 1878 1878 1878 1878 1878 1878 1878 1878 1878 1878 1878 1878 1888 1878 1878 1878 1878 1878 1878 1878 1878 1878 1878 1878 1888 1888 1888 1888 1888 1888 1888 1899 1899 1909 1909 1909 1920 1920 1920 1920 1920 1920 1920 1931 1931 1931 1941 1941 1952 1952 1964 1964 1964 1975 1975 1975 1986 1986 1986 1998 2009 2009 2009 2021 0 2680 2680 2659 2659 2659 2659 2659 2659 2659 2659 2659 2659 2659 2659 2680 2680 2680 2680 2680 2680 2680 2680 2680 2680 2680 2680 2680 2680 2680 2680 2680 2680 2680 2680 2701 2701 2701 2701 2701 2680 2680 2680 2680 2680 2680 2680 2680 2680 2680 2680 2659 2659 2659 2659 2659 2680 2680 2659 2659 2680 2680 2659 2680 2680 2680 2680 2680 2680 2680 2680 2680 2680 2680 2680 2680 2659 2659 2639 2639 2639 2659 2659 2659 2659 2659 2659 2680 2680 2680 2659 2680 2680 2639 2639 2619 2639 2639 2639 2619 2639 2639 2619 2619 2619 2619 2619 2639 2659 2659 2659 2659 2659 2659 2659 2680 2659 2619 2619 2619 2680 2680 2639 2659 2659 2659 2680 2680 2680 2659 2659 2680 2639 2680 2680 2659 2639 2659 2659 2659 2659 2659 2659 2659 2659 2659 2639 2659 2639 2659 2659 2659 2659 2659 2680 2659 2659 2659 2659 2659 2659 2659 2659 2659 2659 2659 2659 2659 2659 2659 2659 2680 2680 2680 2680 2680 2680 2680 2680 2680 2680 2680 2680 2659 2680 2659 2659 2659 2659 2680 2659 2659 2680 2680 2680 2680 2680 2680 2680 2659 2659 2659 2659 2659 2659 2659 2659 2659 2659 2659 2659 2659 2659 2659 2659 2659 2659 2659 2659 2639 2639 2639 2639 2659 2639 2639 2659 2659 2659 2639 2639 2639 2619
    0 0 0 0 0 0 0 0 0 0 0 0 0 0 0 0 0 0 0 0 0 0 0 0 0 0 0 0 0 0 0 0 0 0 0 0 0 0 0 0 0 0 0 0 0 0 0 0 0 0 0 0 0 0 0 0 0 0 0 0 0 0 0 0 0 0 0 0 0 0 0 0 0 0 0 0 0 0 0 0 0 0 0 0 0 0 0 0 0 0 0 0 0 0 0 0 0 0 0 0 0 0 0 0 0 0 0 0 0 0 0 0 0 0 0 0 0 0 0 0 0 0 0 0 0 0 0 0 2722 2722 2722 2722 2722 2722 2722 2722 2701 2701 2701 2680 2680 2680 2680 2680 2680 2680 2659 2659 2680 2659 2680 2680 2680 2680 2680 2680 2680 2680 2680 2680 2680 2680 2680 2680 2680 2680 2680 2680 2680 2680 2659 2680 2680 2680 2680 2680 2680 2680 2680 2680 2680 2680 2680 2680 2680 2680 2680 2680 2680 2659 2659 2680 2659 2680 2680 2680 2680 2680 2680 2680 2680 2659 2680 2680 2680 2680 2680 2680 2680 2680 2680 2680 2680 2680 2659 2659 2659 2659 2659 2659 2659 2659 2659 2659 2659 2659 2659 2659 2659 2680 2659 2659 2659 2659 2659 2659 2659 2659 2659 2659 2659 2659 2659 2659 2659 2659 2680 2659 2659 2659 2680 2680 2680 2659 2659 2659 2659 2659 2659 2659 2659 2659 2659 2659 2659 2659 2659 2659 2659 2659 2659 2659 2659 2659 2659 2659 2659 2659 2659 2680 2680 1998 1998 1998 1986 1986 1975 1975 1964 1964 1964 1952 1952 1952 1941 1941 1941 1931 1931 1931 1920 1920 1920 1920 1909 1909 1909 1909 1899 1899 1899 1899 1899 1899 1899 1899 1899 1899 1888 1888 1878 1878 1878 1878 1878 1878 1878 1878 1878 1878 1878 1878 1878 1878 1878 1878 1878 1878 1878 1878 1878 1878 1878 1878 1868 1878 1878 1878 1878 1878 1878 1878 1878 1878 1878 1888 1878 1878 1878 1878 1878 1878 1878 1878 1878 1878 1878 1888 1888 1888 1888 1888 1888 1899 1899 1899 1909 1909 1909 1909 1909 1920 1920 1920 1920 1920 1920 1920 1931 1941 1941 1941 1952 1952 1964 1964 1975 1975 1975 1986 1986 1998 2009 2009 2009 2021 0 0 0 2659 2659 2659 2659 2659 2659 2659 2659 2659 2659 2659 2659 2659 2680 2680 2680 2680 2680 2680 2680 2680 2680 2680 2680 2680 2680 2680 2680 2680 2680 2680 2680 2680 2701 2701 2701 2701 2701 2701 2680 2680 2680 2680 2680 2680 2680 2680 2680 2680 2680 2659 2680 2680 2680 2680 2680 2680 2680 2680 2680 2680 2680 2680 2680 2680 2680 2680 2680 2701 2701 2701 2680 2680 2680 2659 2659 2639 2639 2659 2659 2659 2659 2659 2680 2680 2680 2680 2680 2680 2680 2680 2639 2639 2639 2639 2639 2639 2619 2639 2639 2619 2639 2639 2639 2659 2659 2659 2659 2659 2680 2680 2680 2680 2680 2680 2680 2639 2639 2680 2659 2659 2639 2659 2659 2659 2680 2680 2659 2639 2680 2639 2639 2659 2659 2639 2680 2680 2680 2680 2680 2659 2680 2659 2659 2659 2659 2659 2659 2659 2659 2659 2659 2659 2680 2659 2680 2659 2680 2659 2659 2680 2680 2680 2659 2680 2659 2680 2680 2680 2680 2680 2680 2680 2680 2680 2701 2680 2680 2680 2680 2680 2659 2680 2680 2680 2680 2680 2680 2680 2680 2680 2680 2680 2701 2701 2701 2680 2680 2680 2659 2659 2659 2659 2659 2659 2659 2659 2659 2659 2659 2659 2659 2680 2680 2680 2680 2659 2659 2659 2659 2659 2659 2659 2659 2659 2659 2639 2639 2639 2619 2619
    0 0 0 0 0 0 0 0 0 0 0 0 0 0 0 0 0 0 0 0 0 0 0 0 0 0 0 0 0 0 0 0 0 0 0 0 0 0 0 0 0 0 0 0 0 0 0 0 0 0 0 0 0 0 0 0 0 0 0 0 0 0 0 0 0 0 0 0 0 0 0 0 0 0 0 0 0 0 0 0 0 0 0 0 0 0 0 0 0 0 0 0 0 0 0 0 0 0 0 0 0 0 0 0 0 0 0 0 0 0 0 0 0 0 0 0 0 0 0 0 0 0 0 0 0 0 0 2743 2722 2722 2743 2722 2743 2722 2722 2722 2722 2701 2701 2680 2680 2680 2680 2680 2680 2680 2680 2680 2680 2680 2680 2680 2680 2680 2680 2680 2680 2680 2680 2680 2680 2680 2680 2680 2680 2701 2680 2680 2680 2680 2680 2680 2680 2680 2680 2680 2680 2680 2680 2680 2680 2680 2680 2680 2680 2680 2680 2680 2680 2680 2680 2680 2680 2680 2680 2680 2680 2680 2680 2680 2680 2680 2680 2680 2680 2680 2680 2680 2680 2680 2680 2680 2680 2680 2680 2680 2680 2659 2680 2680 2680 2680 2680 2680 2680 2680 2680 2680 2680 2680 2659 2659 2659 2659 2659 2659 2659 2659 2659 2659 2659 2659 2680 2680 2680 2680 2680 2680 2680 2680 2680 2680 2680 2659 2659 2659 2659 2659 2659 2659 2659 2659 2659 2659 2659 2659 2659 2659 2659 2659 2659 2659 2659 2659 2659 2659 2659 2659 2680 2680 2701 1998 1998 1998 1998 1986 1975 1975 1964 1964 1952 1952 1952 1952 1941 1941 1941 1931 1931 1920 1920 1920 1920 1920 1909 1909 1909 1909 1899 1899 1899 1899 1899 1899 1899 1899 1899 1899 1888 1888 1878 1878 1878 1878 1878 1878 1878 1878 1878 1878 1878 1878 1878 1878 1878 1878 1878 1878 1878 1878 1878 1878 1878 1878 1868 1878 1878 1878 1878 1878 1878 1878 1878 1878 1878 1888 1878 1878 1878 1878 1878 1878 1878 1878 1878 1878 1878 1878 1888 1888 1888 1888 1888 1899 1899 1899 1909 1909 1909 1909 1909 1920 1920 1920 1920 1920 1920 1920 1931 1931 1931 1941 1952 1964 1964 1964 1975 1975 1975 1986 1986 1998 2009 2009 2009 2021 0 2033 0 0 2680 2659 2659 2659 2659 2659 2659 2659 2659 2659 2659 2680 2680 2680 2680 2680 2680 2680 2680 2680 2680 2680 2680 2680 2680 2680 2680 2680 2680 2680 2680 2680 2701 2680 2680 2701 2701 2701 2680 2680 2680 2680 2680 2680 2680 2680 2680 2680 2680 2680 2680 2680 2680 2701 2680 2680 2680 2680 2680 2680 2680 2680 2680 2680 2680 2701 2701 2701 2701 2701 2701 2701 2680 2680 2659 2659 2659 2659 2659 2680 2680 2659 2680 2680 2680 2680 2680 2659 2680 2680 2659 2659 2639 2639 2639 2659 2639 2639 2639 2639 2639 2659 2659 2659 2659 2659 2680 2680 2680 2659 2680 2680 2701 2680 2680 2659 2659 2680 2680 2659 2659 2659 2680 2680 2680 2680 2680 2680 2680 2701 2680 2701 2659 2659 2680 2680 2680 2680 2680 2680 2680 2680 2680 2659 2659 2659 2659 2680 2659 2680 2680 2680 2680 2680 2680 2680 2680 2680 2680 2680 2680 2680 2680 2680 2680 2680 2680 2680 2701 2701 2701 2701 2701 2701 2701 2701 2701 2701 2701 2680 2659 2659 2701 2701 2701 2701 2701 2701 2701 2701 2701 2701 2722 2701 2701 2701 2701 2680 2680 2680 2680 2659 2659 2680 2659 2659 2659 2659 2680 2680 2680 2680 2701 2701 2701 2701 2680 2659 2659 2659 2680 2659 2659 2659 2659 2639 2639 2639 2639 2639
    0 0 0 0 0 0 0 0 0 0 0 0 0 0 0 0 0 0 0 0 0 0 0 0 0 0 0 0 0 0 0 0 0 0 0 0 0 0 0 0 0 0 0 0 0 0 0 0 0 0 0 0 0 0 0 0 0 0 0 0 0 0 0 0 0 0 0 0 0 0 0 0 0 0 0 0 0 0 0 0 0 0 0 0 0 0 0 0 0 0 0 0 0 0 0 0 0 0 0 0 0 0 0 0 0 0 0 0 0 0 0 0 0 0 0 0 0 0 0 0 0 0 0 0 0 0 0 2743 2722 2722 2743 2743 2743 2722 2743 2743 2722 2722 2701 2680 2680 2680 2680 2680 2680 2680 2680 2680 2680 2680 2680 2680 2680 2680 2680 2680 2680 2680 2680 2680 2680 2680 2680 2680 2701 2701 2701 2701 2701 2701 2680 2680 2680 2680 2680 2680 2680 2680 2680 2701 2701 2701 2680 2680 2680 2680 2680 2680 2680 2680 2680 2680 2680 2680 2680 2680 2680 2680 2680 2680 2680 2680 2680 2680 2680 2680 2680 2701 2680 2680 2680 2680 2680 2680 2680 2680 2680 2680 2680 2680 2680 2680 2680 2680 2680 2680 2680 2680 2680 2680 2659 2659 2659 2659 2659 2659 2659 2659 2659 2659 2680 2680 2680 2680 2680 2680 2701 2680 2680 2680 2680 2701 2701 2680 2659 2659 2659 2680 2659 2659 2659 2659 2659 2659 2659 2659 2659 2659 2659 2659 2680 2659 2659 2659 2659 2680 2680 2680 2680 2701 2722 1986 1986 1998 1986 1986 1975 1975 1964 1964 1964 1952 1952 1952 1941 1941 1941 1931 1931 1920 1920 1920 1920 1920 1909 1909 1909 1909 1899 1899 1899 1899 1899 1899 1899 1899 1899 1899 1888 1888 1878 1878 1878 1878 1878 1878 1878 1878 1878 1878 1878 1878 1878 1878 1878 1878 1878 1878 1878 1878 1878 1878 1878 1878 1878 1878 1878 1878 1878 1878 1878 1878 1878 1878 1878 1878 1878 1878 1878 1878 1878 1878 1878 1878 1878 1878 1878 1878 1888 1888 1888 1888 1888 1899 1899 1899 1909 1909 1909 1909 1909 1920 1920 1920 1920 1920 1920 1931 1931 1931 1931 1941 1952 1952 1964 1964 1975 1975 1975 1986 1986 1998 2009 2009 2021 2033 2033 2033 0 2680 2680 2680 2680 2680 2680 2680 2659 2659 2659 2680 2680 2680 2680 2680 2680 2701 2680 2680 2680 2680 2680 2701 2701 2680 2680 2680 2680 2680 2680 2680 2680 2680 2701 2680 2680 2701 2701 2701 2701 2680 2680 2701 2701 2680 2701 2701 2701 2701 2680 2680 2680 2680 2680 2701 2680 2680 2680 2680 2701 2680 2680 2680 2701 2701 2701 2701 2701 2701 2701 2722 2701 2701 2701 2701 2680 2659 2659 2659 2680 2680 2680 2680 2680 2680 2701 2701 2701 2659 2680 2701 2659 2659 2659 2659 2659 2659 2659 2659 2659 2659 2659 2659 2659 2659 2659 2659 2680 2680 2680 2680 2680 2680 2680 2680 2680 2680 2680 2680 2701 2680 2680 2680 2680 2680 2680 2680 2680 2680 2701 2701 2701 2701 2701 2659 2680 2680 2680 2680 2680 2680 2680 2659 2680 2680 2659 2659 2659 2680 2659 2680 2680 2680 2680 2680 2680 2680 2680 2680 2680 2680 2680 2680 2680 2680 2680 2680 2680 2701 2701 2701 2722 2722 2722 2722 2722 2701 2680 2722 2680 2680 2659 2701 2701 2722 2701 2701 2722 2701 2722 2722 2722 2722 2722 2722 2722 2701 2701 2701 2701 2680 2680 2680 2680 2680 2680 2680 2680 2680 2701 2701 2701 2701 2701 2722 2701 2701 2680 2659 2659 2659 2659 2659 2659 2659 2659 2639 2659 2659 2639 2639
    0 0 0 0 0 0 0 0 0 0 0 0 0 0 0 0 0 0 0 0 0 0 0 0 0 0 0 0 0 0 0 0 0 0 0 0 0 0 0 0 0 0 0 0 0 0 0 0 0 0 0 0 0 0 0 0 0 0 0 0 0 0 0 0 0 0 0 0 0 0 0 0 0 0 0 0 0 0 0 0 0 0 0 0 0 0 0 0 0 0 0 0 0 0 0 0 0 0 0 0 0 0 0 0 0 0 0 0 0 0 0 0 0 0 0 0 0 0 0 0 0 0 0 0 0 0 0 2743 2722 2722 2743 2743 2743 2743 2743 2743 2722 2722 2722 2701 2701 2701 2680 2680 2680 2680 2680 2680 2680 2680 2680 2680 2680 2680 2680 2680 2680 2680 2680 2680 2680 2680 2680 2680 2701 2701 2701 2701 2701 2701 2701 2701 2701 2680 2701 2680 2680 2680 2701 2701 2701 2701 2701 2680 2680 2680 2680 2701 2680 2680 2680 2680 2701 2701 2701 2701 2701 2680 2680 2680 2680 2680 2680 2680 2680 2680 2701 2701 2701 2701 2701 2680 2680 2680 2680 2680 2680 2680 2680 2680 2680 2680 2680 2701 2680 2680 2680 2680 2680 2680 2659 2659 2659 2659 2680 2659 2680 2680 2680 2680 2680 2680 2680 2680 2680 2701 2701 2680 2680 2680 2701 2701 2701 2680 2680 2680 2680 2680 2659 2659 2659 2659 2659 2659 2659 2659 2659 2659 2680 2680 2680 2680 2680 2680 2680 2680 2701 2701 2701 2722 2743 1986 1986 1998 1986 1986 1975 1975 1964 1964 1964 1952 1952 1952 1941 1941 1931 1931 1931 1920 1920 1920 1920 1920 1909 1909 1909 1909 1909 1899 1899 1899 1899 1899 1899 1899 1899 1899 1899 1888 1878 1878 1878 1878 1878 1878 1878 1878 1878 1878 1878 1878 1878 1878 1868 1878 1878 1868 1868 1878 1878 1878 1878 1878 1878 1878 1878 1878 1878 1878 1878 1878 1878 1878 1878 1878 1878 1878 1878 1878 1878 1878 1878 1878 1878 1878 1878 1878 1888 1888 1888 1888 1888 1888 1899 1899 1909 1899 1909 1909 1909 1909 1920 1920 1920 1920 1920 1931 1931 1931 1931 1941 1952 1952 1964 1964 1964 1975 1975 1986 1986 1998 2009 2009 2021 2021 2033 2033 0 0 2701 2701 2680 2680 2680 2659 2680 2659 2680 2680 2680 2680 2680 2680 2701 2701 2701 2701 2701 2701 2701 2701 2701 2680 2701 2701 2701 2680 2680 2680 2680 2701 2701 2680 2701 2701 2701 2701 2701 2701 2680 2701 2701 2701 2701 2701 2701 2701 2701 2701 2701 2701 2701 2701 2701 2680 2701 2701 2701 2701 2701 2701 2701 2701 2701 2701 2701 2701 2722 2722 2701 2701 2701 2701 2680 2680 2680 2680 2680 2680 2680 2680 2680 2680 2701 2680 2701 2680 2680 2701 2680 2680 2659 2659 2659 2659 2659 2659 2659 2659 2659 2659 2659 2659 2659 2680 2680 2680 2680 2680 2680 2680 2680 2701 2701 2701 2701 2701 2701 2701 2701 2680 2680 2680 2701 2701 2701 2701 2701 2722 2701 2701 2701 2701 2701 2701 2680 2680 2680 2680 2680 2680 2680 2680 2680 2680 2680 2680 2680 2680 2680 2680 2680 2680 2680 2680 2701 2701 2680 2701 2680 2680 2680 2680 2680 2680 2680 2701 2701 2722 2722 2722 2722 2722 2743 2722 2722 2722 2680 2680 2659 2701 2701 2722 2722 2701 2722 2722 2722 2722 2722 2722 2722 2722 2722 2722 2722 2722 2701 2701 2701 2722 2722 2722 2701 2701 2701 2701 2701 2701 2701 2701 2701 2701 2680 2680 2659 2659 2659 2659 2659 2659 2639 2680 2639 2639 2659 2659 2639 2639
    0 0 0 0 0 0 0 0 0 0 0 0 0 0 0 0 0 0 0 0 0 0 0 0 0 0 0 0 0 0 0 0 0 0 0 0 0 0 0 0 0 0 0 0 0 0 0 0 0 0 0 0 0 0 0 0 0 0 0 0 0 0 0 0 0 0 0 0 0 0 0 0 0 0 0 0 0 0 0 0 0 0 0 0 0 0 0 0 0 0 0 0 0 0 0 0 0 0 0 0 0 0 0 0 0 0 0 0 0 0 0 0 0 0 0 0 0 0 0 0 0 0 0 0 0 0 0 2743 2722 2722 2743 2722 2722 2722 2743 2743 2743 2743 2722 2701 2701 2701 2701 2701 2701 2680 2680 2680 2680 2680 2680 2680 2701 2701 2701 2701 2701 2701 2701 2701 2680 2680 2680 2680 2701 2701 2701 2701 2701 2701 2701 2701 2701 2701 2701 2680 2701 2701 2701 2701 2701 2701 2701 2680 2680 2680 2701 2701 2701 2701 2701 2680 2701 2701 2701 2680 2680 2680 2680 2680 2680 2680 2680 2680 2680 2701 2701 2701 2701 2701 2701 2701 2701 2701 2701 2680 2701 2680 2701 2701 2701 2701 2701 2701 2680 2680 2680 2680 2680 2680 2659 2659 2659 2680 2680 2659 2680 2680 2680 2680 2701 2680 2680 2680 2680 2701 2701 2701 2680 2680 2701 2701 2701 2701 2680 2680 2680 2680 2680 2659 2659 2659 2659 2659 2659 2659 2680 2680 2680 2680 2701 2680 2701 2701 2701 2701 2722 2722 2722 2743 1998 1998 1998 1998 1986 1986 1975 1975 1975 1964 1964 1952 1941 1941 1941 1931 1931 1931 1931 1931 1920 1920 1920 1920 1909 1909 1909 1909 1909 1899 1899 1899 1899 1899 1899 1899 1899 1899 1899 1888 1878 1878 1878 1878 1878 1878 1878 1878 1878 1878 1878 1878 1868 1878 1868 1868 1868 1868 1868 1878 1878 1878 1878 1878 1878 1878 1878 1878 1878 1878 1878 1878 1878 1878 1878 1878 1878 1878 1878 1878 1878 1878 1878 1878 1878 1878 1878 1888 1888 1888 1888 1888 1888 1888 1899 1899 1899 1899 1909 1909 1899 1909 1909 1909 1920 1920 1920 1931 1931 1931 1931 1941 1941 1952 1952 1964 1964 1964 1975 1986 1986 1986 1998 2009 2021 2021 2021 2021 0 0 2701 2701 2680 2680 2680 2659 2680 2680 2680 2680 2680 2680 2701 2701 2701 2701 2701 2701 2701 2701 2701 2701 2701 2701 2701 2701 2701 2701 2701 2701 2701 2701 2701 2701 2701 2701 2701 2701 2701 2701 2701 2701 2701 2701 2701 2701 2701 2701 2701 2701 2701 2701 2701 2701 2701 2701 2701 2701 2701 2701 2701 2701 2722 2701 2701 2701 2701 2701 2722 2722 2701 2722 2701 2722 2701 2701 2680 2680 2680 2680 2701 2680 2701 2701 2701 2680 2701 2680 2701 2701 2680 2701 2680 2680 2680 2680 2680 2680 2659 2659 2659 2659 2659 2680 2680 2680 2680 2680 2701 2680 2680 2701 2701 2701 2701 2680 2701 2701 2701 2680 2659 2659 2680 2680 2680 2680 2701 2701 2722 2722 2722 2722 2722 2722 2701 2701 2701 2701 2659 2680 2701 2680 2701 2680 2680 2680 2680 2680 2680 2680 2680 2680 2680 2680 2680 2680 2701 2701 2701 2701 2680 2680 2680 2701 2680 2680 2680 2701 2701 2722 2722 2722 2722 2743 2743 2722 2722 2722 2743 2743 2659 2701 2701 2722 2722 2722 2722 2722 2722 2722 2722 2722 2722 2722 2722 2722 2722 2722 2722 2722 2722 2722 2701 2722 2701 2701 2701 2701 2701 2701 2701 2701 2701 2701 2680 2680 2659 2659 2659 2659 2659 2659 2639 2639 2639 2659 2659 2659 2639 2639
    0 0 0 0 0 0 0 0 0 0 0 0 0 0 0 0 0 0 0 0 0 0 0 0 0 0 0 0 0 0 0 0 0 0 0 0 0 0 0 0 0 0 0 0 0 0 0 0 0 0 0 0 0 0 0 0 0 0 0 0 0 0 0 0 0 0 0 0 0 0 0 0 0 0 0 0 0 0 0 0 0 0 0 0 0 0 0 0 0 0 0 0 0 0 0 0 0 0 0 0 0 0 0 0 0 0 0 0 0 0 0 0 0 0 0 0 0 0 0 0 0 0 0 0 0 0 0 2722 2722 2722 2743 2722 2722 2743 2743 2743 2743 2743 2722 2722 2722 2722 2701 2701 2701 2701 2701 2701 2701 2701 2701 2701 2701 2701 2701 2701 2701 2701 2701 2701 2701 2701 2701 2701 2701 2701 2701 2701 2701 2701 2701 2701 2701 2701 2701 2701 2701 2701 2701 2701 2701 2701 2701 2701 2680 2680 2680 2701 2680 2680 2701 2701 2701 2701 2701 2701 2701 2680 2680 2680 2680 2680 2680 2680 2680 2701 2701 2701 2701 2701 2701 2701 2701 2701 2701 2701 2701 2701 2701 2701 2701 2701 2701 2701 2701 2701 2680 2680 2680 2680 2680 2659 2680 2680 2680 2680 2680 2680 2680 2701 2701 2701 2701 2701 2701 2701 2701 2701 2701 2701 2701 2701 2722 2701 2701 2701 2701 2701 2680 2680 2659 2659 2659 2680 2680 2680 2680 2701 2701 2701 2701 2701 2701 2701 2701 2722 2722 2722 2743 2765 1998 1998 1998 1998 1986 1986 1975 1975 1975 1964 1964 1952 1941 1941 1941 1931 1931 1931 1931 1931 1920 1920 1920 1920 1920 1909 1920 1909 1909 1909 1909 1899 1899 1899 1899 1899 1899 1888 1888 1888 1878 1878 1878 1878 1878 1878 1878 1878 1878 1878 1878 1868 1868 1868 1868 1878 1868 1868 1868 1868 1878 1878 1878 1878 1878 1878 1878 1878 1878 1878 1868 1878 1878 1878 1878 1878 1878 1878 1878 1878 1878 1878 1878 1878 1878 1878 1878 1888 1888 1888 1888 1888 1888 1899 1899 1899 1899 1899 1909 1909 1909 1909 1920 1920 1920 1920 1920 1931 1931 1931 1931 1931 1941 1952 1952 1952 1964 1964 1975 1975 1986 1986 1998 2009 2009 2021 2021 2021 0 0 0 2701 2680 2680 2680 2680 2680 2680 2680 2701 2701 2701 2701 2701 2701 2722 2701 2701 2701 2701 2701 2701 2701 2701 2701 2701 2701 2701 2701 2701 2701 2701 2701 2701 2701 2701 2701 2701 2701 2701 2701 2701 2701 2701 2701 2701 2701 2701 2701 2722 2701 2722 2722 2722 2722 2722 2701 2701 2701 2701 2701 2722 2722 2701 2701 2701 2701 2701 2701 2722 2701 2722 2722 2722 2722 2722 2701 2701 2701 2701 2701 2701 2701 2701 2701 2701 2722 2701 2701 2722 2680 2701 2680 2680 2680 2680 2680 2680 2680 2659 2680 2680 2680 2680 2680 2680 2680 2701 2701 2701 2701 2701 2701 2701 2701 2680 2701 2701 2722 2680 2680 2659 2680 2701 2659 2701 2680 2701 2722 2722 2722 2722 2722 2722 2701 2680 2680 2680 2680 2680 2680 2680 2680 2701 2701 2680 2680 2680 2680 2680 2701 2680 2680 2680 2680 2701 2701 2701 2701 2701 2701 2701 2701 2701 2701 2701 2701 2701 2722 2722 2722 2722 2743 2743 2743 2743 2743 2743 2743 2743 2722 2722 2722 2722 2722 2722 2722 2722 2722 2722 2722 2722 2722 2722 2722 2722 2722 2722 2722 2722 2722 2722 2722 2722 2701 2701 2701 2701 2701 2701 2701 2701 2701 2701 2680 2680 2659 2659 2659 2659 2659 2680 2680 2680 2680 2639 2639 2639 2639 2639
    0 0 0 0 0 0 0 0 0 0 0 0 0 0 0 0 0 0 0 0 0 0 0 0 0 0 0 0 0 0 0 0 0 0 0 0 0 0 0 0 0 0 0 0 0 0 0 0 0 0 0 0 0 0 0 0 0 0 0 0 0 0 0 0 0 0 0 0 0 0 0 0 0 0 0 0 0 0 0 0 0 0 0 0 0 0 0 0 0 0 0 0 0 0 0 0 0 0 0 0 0 0 0 0 0 0 0 0 0 0 0 0 0 0 0 0 0 0 0 0 0 0 0 0 0 0 0 2722 2722 2722 2743 2722 2722 2743 2743 2743 2743 2743 2743 2722 2722 2722 2743 2701 2701 2701 2701 2701 2701 2701 2701 2701 2722 2701 2722 2722 2722 2722 2722 2701 2701 2701 2701 2701 2701 2701 2701 2701 2701 2722 2701 2701 2722 2701 2701 2701 2701 2701 2701 2722 2701 2701 2701 2701 2701 2701 2701 2701 2701 2701 2701 2701 2701 2701 2701 2701 2701 2701 2680 2680 2680 2680 2680 2701 2701 2701 2701 2701 2722 2722 2722 2722 2722 2701 2701 2701 2701 2701 2701 2701 2701 2701 2701 2701 2701 2701 2701 2701 2680 2701 2680 2680 2680 2680 2701 2680 2701 2701 2701 2701 2701 2701 2701 2701 2701 2701 2701 2701 2701 2701 2701 2701 2701 2701 2701 2701 2701 2701 2701 2680 2680 2680 2680 2680 2680 2680 2701 2701 2701 2701 2722 2701 2701 2722 2722 2722 2722 2743 1998 1998 1998 1998 1998 1998 1986 1975 1975 1975 1964 1964 1964 1952 1941 1941 1941 1931 1931 1931 1931 1931 1920 1920 1920 1920 1920 1920 1920 1920 1909 1909 1909 1899 1909 1899 1899 1888 1888 1888 1899 1888 1878 1878 1878 1878 1878 1878 1878 1878 1878 1878 1878 1868 1868 1868 1868 1858 1868 1868 1858 1868 1878 1878 1878 1878 1878 1878 1878 1878 1878 1878 1868 1878 1878 1878 1878 1878 1878 1878 1878 1878 1878 1878 1878 1878 1878 1878 1878 1888 1888 1888 1888 1888 1888 1888 1899 1899 1899 1899 1909 1909 1909 1909 1920 1920 1920 1920 1920 1931 1931 1931 1931 1931 1941 1941 1952 1952 1964 1964 1975 1975 1975 1986 1998 2009 2021 2021 2021 2021 0 0 0 2701 2680 2680 2680 2680 2680 2680 2680 2701 2701 2701 2701 2701 2701 2722 2722 2701 2701 2701 2701 2701 2722 2701 2701 2701 2701 2701 2701 2701 2701 2701 2701 2701 2701 2722 2722 2722 2722 2722 2722 2722 2722 2701 2701 2701 2701 2701 2701 2722 2722 2722 2722 2722 2722 2722 2722 2701 2701 2722 2701 2722 2722 2701 2722 2701 2722 2722 2722 2722 2722 2722 2722 2743 2743 2722 2701 2701 2701 2701 2701 2701 2701 2701 2701 2701 2701 2701 2722 2701 2701 2701 2680 2680 2680 2680 2680 2680 2680 2680 2680 2680 2680 2680 2680 2680 2701 2680 2701 2701 2701 2701 2701 2722 2680 2680 2701 2701 2701 2680 2680 2680 2680 2680 2680 2680 2680 2722 2722 2722 2722 2722 2722 2722 2701 2722 2680 2680 2680 2680 2701 2680 2680 2701 2701 2701 2680 2701 2701 2680 2701 2701 2680 2680 2701 2701 2701 2722 2701 2722 2701 2701 2701 2722 2701 2701 2701 2701 2722 2722 2722 2743 2743 2743 2743 2743 2743 2743 2743 2743 2722 2722 2722 2722 2722 2722 2722 2722 2722 2722 2722 2722 2701 2722 2722 2722 2722 2722 2722 2722 2722 2722 2701 2701 2701 2701 2701 2701 2722 2722 2701 2701 2722 2701 2680 2680 2659 2659 2659 2659 2680 2680 2701 2701 2701 2659 2659 2659 2639 2639
    0 0 0 0 0 0 0 0 0 0 0 0 0 0 0 0 0 0 0 0 0 0 0 0 0 0 0 0 0 0 0 0 0 0 0 0 0 0 0 0 0 0 0 0 0 0 0 0 0 0 0 0 0 0 0 0 0 0 0 0 0 0 0 0 0 0 0 0 0 0 0 0 0 0 0 0 0 0 0 0 0 0 0 0 0 0 0 0 0 0 0 0 0 0 0 0 0 0 0 0 0 0 0 0 0 0 0 0 0 0 0 0 0 0 0 0 0 0 0 0 0 0 0 0 0 0 0 2722 2722 2722 2722 2722 2743 2743 2743 2743 2743 2743 2743 2722 2722 2722 2743 2722 2743 2701 2701 2701 2701 2701 2722 2722 2722 2722 2722 2722 2722 2722 2722 2722 2722 2701 2722 2722 2722 2722 2722 2722 2722 2722 2722 2722 2722 2722 2722 2722 2722 2722 2722 2722 2722 2701 2722 2701 2701 2722 2722 2701 2701 2722 2722 2722 2722 2701 2701 2701 2701 2701 2701 2701 2701 2701 2701 2701 2701 2722 2722 2722 2722 2722 2722 2722 2722 2722 2701 2701 2701 2701 2701 2701 2701 2701 2701 2722 2722 2722 2701 2722 2701 2722 2701 2701 2701 2701 2701 2701 2701 2701 2701 2701 2701 2701 2701 2701 2701 2701 2701 2701 2701 2701 2701 2722 2722 2722 2722 2722 2722 2722 2722 2701 2680 2680 2680 2701 2701 2701 2701 2722 2722 2722 2722 2722 2722 2722 2722 2722 2743 2743 1986 1986 1998 1998 1998 1986 1986 1975 1975 1975 1975 1964 1964 1952 1941 1941 1931 1931 1931 1931 1931 1931 1920 1920 1920 1920 1920 1920 1920 1920 1920 1909 1909 1909 1909 1899 1899 1888 1888 1888 1899 1888 1878 1878 1878 1878 1878 1878 1878 1878 1878 1878 1878 1868 1868 1868 1868 1858 1868 1868 1868 1868 1878 1878 1878 1878 1878 1878 1878 1878 1878 1878 1878 1878 1878 1878 1878 1878 1878 1878 1878 1878 1878 1878 1878 1878 1878 1878 1878 1878 1888 1888 1888 1888 1888 1888 1899 1899 1899 1899 1909 1909 1909 1909 1909 1909 1920 1920 1920 1931 1931 1931 1931 1941 1941 1941 1952 1952 1964 1964 1975 1975 1975 1986 1986 2009 2021 2021 2021 2021 0 0 0 2701 2680 2680 2680 2680 2680 2680 2701 2701 2701 2701 2722 2722 2722 2722 2722 2701 2701 2701 2722 2722 2722 2722 2722 2722 2701 2701 2701 2701 2722 2722 2722 2722 2722 2722 2722 2743 2722 2722 2722 2722 2722 2722 2722 2701 2722 2701 2701 2743 2722 2722 2722 2722 2722 2722 2722 2722 2722 2722 2722 2743 2743 2722 2722 2722 2722 2722 2722 2722 2722 2743 2743 2743 2743 2722 2722 2722 2701 2701 2701 2701 2701 2701 2701 2701 2722 2722 2722 2701 2680 2701 2680 2701 2680 2680 2701 2680 2680 2680 2680 2680 2701 2701 2701 2680 2701 2701 2701 2701 2701 2701 2701 2680 2680 2701 2701 2701 2701 2680 2680 2680 2680 2680 2680 2680 2680 2722 2722 2722 2722 2722 2722 2722 2722 2722 2680 2680 2680 2680 2701 2701 2680 2680 2680 2680 2680 2701 2701 2701 2701 2701 2722 2722 2722 2722 2722 2722 2722 2722 2722 2722 2722 2722 2722 2701 2701 2701 2722 2722 2722 2743 2743 2743 2743 2743 2743 2743 2765 2765 2743 2722 2743 2743 2743 2722 2722 2722 2722 2722 2722 2722 2722 2722 2722 2722 2722 2722 2701 2701 2722 2722 2722 2743 2701 2722 2722 2722 2722 2722 2722 2722 2722 2701 2680 2680 2659 2639 2680 2680 2680 2680 2701 2701 2701 2659 2659 2680 2659 2619
    0 0 0 0 0 0 0 0 0 0 0 0 0 0 0 0 0 0 0 0 0 0 0 0 0 0 0 0 0 0 0 0 0 0 0 0 0 0 0 0 0 0 0 0 0 0 0 0 0 0 0 0 0 0 0 0 0 0 0 0 0 0 0 0 0 0 0 0 0 0 0 0 0 0 0 0 0 0 0 0 0 0 0 0 0 0 0 0 0 0 0 0 0 0 0 0 0 0 0 0 0 0 0 0 0 0 0 0 0 0 0 0 0 0 0 0 0 0 0 0 0 0 0 0 0 0 0 2722 2722 2722 2743 2743 2743 2743 2743 2765 2765 2765 2765 2743 2743 2743 2743 2743 2743 2743 2743 2743 2722 2722 2722 2722 2722 2722 2722 2743 2743 2743 2743 2722 2722 2722 2743 2722 2722 2722 2722 2722 2722 2722 2722 2722 2722 2722 2722 2722 2722 2722 2722 2722 2722 2722 2722 2722 2722 2722 2722 2722 2722 2722 2722 2722 2722 2722 2701 2701 2701 2701 2701 2701 2701 2701 2701 2722 2722 2722 2722 2743 2743 2743 2743 2743 2722 2722 2722 2722 2722 2722 2722 2722 2722 2722 2701 2722 2722 2722 2722 2722 2701 2722 2701 2701 2701 2701 2722 2722 2722 2722 2722 2722 2722 2722 2701 2701 2701 2701 2701 2701 2701 2701 2701 2722 2722 2722 2722 2722 2722 2722 2722 2722 2701 2701 2701 2701 2701 2701 2722 2722 2722 2722 2722 2722 2722 2722 2722 2722 2743 2743 1986 1986 1986 1998 1998 1986 1986 1975 1975 1975 1964 1964 1964 1941 1941 1941 1931 1931 1931 1931 1931 1931 1931 1920 1920 1920 1920 1920 1920 1920 1920 1909 1909 1909 1909 1899 1899 1888 1899 1888 1899 1888 1878 1878 1878 1878 1878 1878 1878 1878 1878 1878 1878 1868 1868 1868 1868 1858 1868 1868 1868 1878 1878 1878 1878 1878 1878 1878 1878 1878 1878 1878 1878 1878 1878 1878 1878 1878 1878 1878 1878 1878 1878 1878 1878 1878 1878 1878 1878 1888 1888 1888 1888 1888 1888 1899 1899 1899 1899 1899 1909 1909 1909 1909 1920 1920 1920 1920 1920 1931 1931 1931 1931 1941 1941 1941 1952 1952 1952 1964 1964 1975 1975 1975 1986 1998 2009 2021 2021 2021 0 0 0 2701 2701 2680 2680 2680 2680 2680 2701 2701 2722 2722 2722 2722 2722 2722 2722 2722 2722 2722 2722 2722 2722 2722 2722 2722 2722 2722 2722 2722 2722 2722 2722 2722 2743 2743 2743 2743 2743 2743 2743 2743 2743 2743 2701 2701 2701 2743 2743 2743 2722 2722 2722 2722 2722 2722 2722 2722 2722 2722 2722 2722 2743 2701 2722 2722 2722 2722 2722 2722 2722 2743 2743 2743 2743 2743 2743 2743 2722 2722 2722 2722 2722 2701 2722 2701 2722 2722 2722 2722 2701 2701 2701 2701 2701 2701 2701 2680 2680 2701 2680 2701 2701 2701 2701 2701 2701 2701 2722 2701 2701 2701 2701 2701 2680 2701 2701 2701 2722 2722 2722 2701 2722 2701 2701 2701 2722 2722 2722 2722 2722 2722 2722 2722 2722 2722 2701 2680 2701 2680 2701 2701 2701 2701 2680 2701 2701 2701 2701 2701 2701 2701 2722 2722 2722 2722 2722 2722 2722 2743 2722 2722 2722 2722 2722 2722 2722 2722 2743 2743 2743 2743 2743 2743 2743 2743 2765 2765 2765 2765 2743 2743 2743 2743 2743 2743 2722 2722 2722 2722 2722 2722 2722 2722 2722 2722 2722 2722 2722 2722 2722 2701 2722 2722 2701 2722 2722 2722 2743 2743 2722 2722 2722 2701 2680 2680 2659 2659 2659 2680 2680 2701 2722 2722 2701 2701 2701 2680 2659 2659
    0 0 0 0 0 0 0 0 0 0 0 0 0 0 0 0 0 0 0 0 0 0 0 0 0 0 0 0 0 0 0 0 0 0 0 0 0 0 0 0 0 0 0 0 0 0 0 0 0 0 0 0 0 0 0 0 0 0 0 0 0 0 0 0 0 0 0 0 0 0 0 0 0 0 0 0 0 0 0 0 0 0 0 0 0 0 0 0 0 0 0 0 0 0 0 0 0 0 0 0 0 0 0 0 0 0 0 0 0 0 0 0 0 0 0 0 0 0 0 0 0 0 0 0 0 0 0 2743 2743 2743 2743 2743 2743 2765 2765 2765 2765 2765 2765 2743 2743 2743 2743 2743 2743 2743 2743 2743 2743 2743 2743 2743 2743 2743 2743 2743 2743 2743 2743 2743 2743 2743 2743 2743 2722 2722 2722 2722 2722 2722 2722 2722 2743 2743 2743 2743 2743 2722 2722 2722 2722 2722 2722 2722 2722 2722 2743 2743 2743 2743 2743 2722 2722 2722 2722 2701 2701 2701 2701 2701 2701 2701 2701 2722 2722 2722 2722 2743 2743 2743 2743 2743 2743 2743 2722 2722 2722 2722 2722 2722 2722 2722 2701 2722 2722 2722 2722 2722 2722 2722 2722 2701 2701 2701 2722 2722 2722 2722 2722 2722 2722 2722 2722 2701 2722 2722 2722 2722 2722 2722 2722 2722 2722 2722 2722 2722 2722 2722 2722 2722 2722 2722 2722 2722 2722 2722 2722 2722 2722 2722 2722 2722 2722 2722 2722 2743 2743 2765 1986 1986 1998 1998 1998 1986 1986 1975 1975 1975 1975 1964 1964 1941 1941 1931 1931 1931 1931 1931 1931 1931 1920 1920 1920 1920 1920 1920 1920 1920 1909 1909 1909 1909 1899 1899 1899 1899 1899 1888 1899 1899 1888 1878 1878 1878 1878 1878 1878 1878 1878 1878 1878 1868 1868 1868 1868 1868 1868 1868 1868 1878 1878 1878 1878 1878 1878 1878 1878 1878 1878 1878 1878 1878 1878 1878 1878 1878 1878 1878 1878 1878 1878 1878 1878 1878 1878 1878 1878 1878 1888 1888 1888 1888 1888 1888 1899 1899 1899 1899 1909 1909 1909 1909 1909 1909 1920 1920 1920 1931 1931 1931 1931 1941 1941 1941 1941 1952 1952 1964 1964 1975 1975 1975 1986 1998 2009 2021 2021 2021 0 0 0 0 0 2701 2680 2680 2701 2701 2701 2722 2722 2722 2722 2743 2743 2743 2765 2743 2722 2722 2743 2743 2743 2722 2722 2722 2722 2722 2722 2743 2743 2743 2743 2743 2765 2765 2765 2743 2743 2743 2743 2743 2743 2743 2722 2722 2722 2722 2743 2743 2722 2743 2722 2722 2722 2722 2722 2722 2722 2722 2722 2722 2743 2722 2722 2722 2722 2722 2722 2722 2743 2743 2743 2743 2743 2743 2743 2743 2743 2743 2722 2722 2722 2701 2722 2701 2722 2722 2722 2722 2722 2701 2701 2722 2701 2701 2701 2701 2701 2722 2680 2680 2722 2722 2722 2722 2701 2701 2722 2701 2701 2680 2680 2680 2680 2701 2701 2722 2743 2722 2743 2722 2722 2722 2722 2722 2722 2722 2722 2722 2722 2722 2701 2701 2701 2701 2701 2680 2701 2680 2701 2701 2701 2701 2680 2701 2701 2722 2722 2722 2722 2722 2722 2722 2722 2722 2722 2722 2722 2743 2722 2722 2722 2722 2743 2722 2743 2722 2743 2743 2743 2743 2743 2743 2743 2743 2765 2765 2765 2765 2743 2743 2743 2743 2743 2743 2722 2722 2722 2722 2722 2722 2722 2722 2722 2743 2743 2722 2722 2722 2722 2722 2722 2743 2722 2722 2722 2743 2743 2743 2722 2722 2722 2722 2701 2701 2680 2701 2701 2701 2701 2701 2722 2722 2722 2701 2722 2659 2659 2639</data></dframe>
</opencv_storage>
