<?xml version="1.0"?>
<opencv_storage>
<dframe type_id="opencv-matrix">
  <rows>33</rows>
  <cols>640</cols>
  <dt>w</dt>
  <data>
    0 0 0 0 0 0 0 0 0 0 0 0 0 0 0 0 0 0 0 0 0 0 0 0 0 0 0 0 0 0 0 0 0 0 0 0 0 0 0 0 0 0 0 0 0 0 0 0 0 0 0 0 0 0 0 0 0 0 0 0 0 0 0 0 0 0 0 0 0 0 0 0 0 0 0 0 0 0 0 0 0 0 0 0 0 0 0 0 0 0 0 0 0 0 0 0 0 0 0 0 0 0 0 0 0 0 0 0 0 0 0 0 0 0 0 0 0 0 0 0 0 0 0 0 0 0 2788 2788 2810 2810 2810 2810 2810 2810 2810 2810 2810 2834 2834 2788 2788 2810 2810 2810 2810 2788 2788 2788 2788 2810 2810 2810 2810 2810 2788 2788 2788 2788 2788 2788 2788 2788 2788 2788 2788 2788 2788 2788 2788 2788 2788 2765 2765 2765 2765 2765 2765 2765 2765 2765 2765 2765 2765 2765 2788 2788 2788 2765 2788 2788 2765 2765 2765 2765 2765 2765 2765 2765 2743 2743 2743 2743 2743 2765 2765 2765 2765 2788 2788 2788 2788 2788 2788 2788 2788 2788 2788 2788 2765 2788 2788 2788 2788 2765 2765 2788 2788 2788 2788 2765 2743 2743 2743 2743 2743 2743 2743 2765 2743 2743 2765 2765 2765 2765 2743 2743 2743 2743 2743 2743 2743 2743 2765 2765 2765 2765 2765 2788 2765 2765 2765 2765 2788 2810 2810 2810 2810 2810 2834 2810 2810 2810 2810 2810 2810 2009 2009 1998 1998 1986 1986 1986 1975 1975 1964 1964 1952 1952 1952 1941 1941 1941 1941 1931 1941 1931 1931 1931 1931 1931 1920 1920 1909 1909 1909 1909 1899 1899 1899 1899 1899 1899 1899 1899 1899 1899 1899 1888 1888 1888 1878 1878 1878 1878 1878 1888 1878 1878 1878 1878 1878 1878 1878 1878 1878 1878 1878 1878 1878 1878 1878 1878 1878 1878 1878 1878 1878 1878 1878 1878 1878 1878 1878 1878 1878 1878 1878 1878 1878 1888 1888 1888 1888 1888 1888 1888 1888 1888 1888 1899 1888 1888 1888 1888 1888 1899 1888 1888 1888 1899 1899 1899 1909 1909 1920 1920 1920 1931 1920 1931 1931 1931 1941 1941 1952 1952 1964 1964 1964 1964 1964 1975 1975 1975 1986 1998 2009 2009 2021 2033 2021 2033 0 2045 0 2788 2788 2788 2788 2788 2788 2788 2788 2788 2788 2788 2788 2765 2788 2788 2788 2788 2788 2788 2788 2788 2788 2788 2788 2788 2788 2788 2788 2788 2788 2788 2788 2788 2788 2788 2788 2810 2788 2788 2788 2788 2788 2810 2810 2788 2788 2788 2788 2788 2788 2788 2788 2788 2788 2788 2810 2810 2810 2810 2834 2834 2810 2810 2788 2788 2788 2788 2788 2788 2788 2788 2788 2788 2788 2788 2788 2788 2788 2788 2788 2788 2765 2765 2765 2765 2743 2743 2743 2743 2765 2765 2765 2765 2765 2765 2765 2765 2765 2765 2765 2765 2765 2765 2765 2765 2743 2743 2743 2743 2765 2765 2765 2765 2788 2788 2788 2788 2810 2810 2788 2788 2788 2788 2765 2788 2765 2765 2765 2765 2788 2788 2765 2765 2765 2765 2765 2765 2765 2765 2765 2765 2765 2765 2765 2765 2765 2765 2765 2765 2765 2765 2765 2765 2765 2765 2765 2765 2765 2765 2765 2765 2788 2788 2788 2788 2788 2788 2810 2810 2788 2788 2810 2810 2810 2810 2788 2788 2788 2788 2788 2810 2810 2810 2810 2810 2810 2810 2810 2788 2765 2765 2765 2765 2765 2788 2788 2788 2788 2788 2765 2788 2788 2788 2765 2765 2765 2788 2788 2788 2788 2788 2810 2810 2810 2765 2788 2788 2765 2743 2743 2743 2743 2722 2722 2722
    0 0 0 0 0 0 0 0 0 0 0 0 0 0 0 0 0 0 0 0 0 0 0 0 0 0 0 0 0 0 0 0 0 0 0 0 0 0 0 0 0 0 0 0 0 0 0 0 0 0 0 0 0 0 0 0 0 0 0 0 0 0 0 0 0 0 0 0 0 0 0 0 0 0 0 0 0 0 0 0 0 0 0 0 0 0 0 0 0 0 0 0 0 0 0 0 0 0 0 0 0 0 0 0 0 0 0 0 0 0 0 0 0 0 0 0 0 0 0 0 0 0 0 0 0 0 2810 2810 2810 2810 2810 2810 2810 2810 2810 2834 2810 2834 2834 2810 2788 2810 2810 2810 2810 2810 2788 2810 2810 2810 2810 2810 2810 2810 2788 2788 2788 2788 2788 2788 2788 2788 2788 2788 2788 2788 2788 2788 2788 2788 2810 2788 2788 2788 2765 2765 2765 2765 2765 2765 2765 2765 2765 2765 2765 2788 2788 2765 2788 2788 2765 2765 2788 2765 2788 2765 2765 2765 2765 2765 2765 2765 2765 2765 2765 2765 2788 2788 2810 2810 2810 2788 2810 2810 2810 2810 2810 2788 2788 2788 2788 2788 2788 2788 2788 2788 2788 2810 2788 2788 2765 2765 2765 2743 2765 2743 2765 2765 2765 2765 2765 2765 2765 2788 2765 2765 2765 2765 2765 2765 2765 2765 2788 2788 2788 2788 2788 2788 2788 2788 2788 2788 2810 2810 2810 2810 2810 2834 2834 2810 2810 2810 2810 2810 2810 2009 2009 1998 1998 1986 1986 1975 1975 1964 1964 1964 1964 1952 1952 1941 1941 1941 1941 1941 1941 1931 1931 1931 1931 1931 1920 1920 1909 1909 1899 1909 1899 1899 1899 1899 1899 1899 1899 1899 1899 1899 1899 1888 1888 1888 1878 1878 1878 1878 1878 1888 1878 1878 1878 1878 1878 1878 1878 1878 1878 1878 1878 1878 1878 1878 1878 1878 1878 1868 1878 1878 1878 1878 1878 1878 1878 1878 1878 1878 1878 1878 1888 1888 1888 1888 1888 1888 1888 1888 1888 1888 1888 1888 1888 1899 1899 1899 1899 1899 1899 1899 1899 1888 1899 1899 1899 1899 1909 1909 1920 1920 1920 1920 1920 1931 1931 1931 1941 1941 1952 1952 1964 1964 1964 1964 1964 1975 1975 1975 1986 2009 2009 2021 2033 2033 2021 2033 2045 2045 2057 2788 0 2788 2788 2810 2788 2788 2788 2810 2788 2810 2788 2788 2788 2788 2788 2788 2788 2788 2788 2810 2810 2788 2810 2810 2788 2788 2788 2788 2788 2810 2810 2810 2810 2810 2810 2810 2810 2810 2810 2810 2810 2810 2810 2788 2788 2788 2788 2788 2788 2788 2788 2788 2788 2788 2788 2788 2788 2788 2788 2810 2788 2788 2810 2788 2788 2788 2788 2788 2788 2788 2788 2788 2788 2810 2788 2788 2788 2788 2788 2788 2788 2788 2788 2788 2765 2765 2765 2765 2765 2765 2765 2788 2788 2788 2788 2788 2765 2788 2788 2765 2765 2765 2765 2765 2765 2765 2765 2765 2765 2765 2765 2765 2788 2788 2788 2810 2810 2810 2810 2810 2765 2765 2765 2765 2765 2765 2765 2788 2810 2810 2788 2788 2788 2788 2788 2788 2765 2765 2788 2765 2765 2765 2788 2765 2788 2765 2765 2765 2765 2765 2765 2765 2765 2765 2765 2765 2765 2765 2788 2788 2788 2788 2788 2788 2810 2810 2834 2834 2810 2810 2834 2834 2834 2834 2810 2810 2810 2788 2788 2788 2810 2810 2810 2834 2810 2788 2810 2810 2788 2788 2788 2788 2788 2788 2810 2810 2810 2810 2788 2810 2810 2810 2788 2788 2788 2788 2788 2788 2788 2788 2810 2810 2810 2765 2788 2788 2788 2743 2743 2765 2765 2743 2743 2743
    0 0 0 0 0 0 0 0 0 0 0 0 0 0 0 0 0 0 0 0 0 0 0 0 0 0 0 0 0 0 0 0 0 0 0 0 0 0 0 0 0 0 0 0 0 0 0 0 0 0 0 0 0 0 0 0 0 0 0 0 0 0 0 0 0 0 0 0 0 0 0 0 0 0 0 0 0 0 0 0 0 0 0 0 0 0 0 0 0 0 0 0 0 0 0 0 0 0 0 0 0 0 0 0 0 0 0 0 0 0 0 0 0 0 0 0 0 0 0 0 0 0 0 0 0 0 2810 2810 2810 2834 2810 2810 2834 2834 2834 2834 2834 2834 2834 2810 2810 2810 2810 2810 2810 2810 2810 2810 2810 2810 2810 2810 2810 2810 2788 2788 2788 2788 2788 2788 2788 2788 2788 2788 2788 2788 2788 2810 2788 2788 2810 2788 2788 2788 2765 2765 2765 2765 2765 2765 2765 2765 2765 2765 2765 2788 2788 2765 2788 2788 2788 2788 2788 2765 2788 2788 2765 2765 2765 2765 2765 2765 2765 2765 2765 2788 2788 2810 2810 2810 2810 2810 2810 2810 2810 2810 2810 2788 2788 2788 2788 2788 2788 2788 2788 2788 2810 2810 2810 2834 2810 2765 2765 2765 2765 2765 2765 2788 2765 2765 2765 2788 2788 2788 2788 2765 2788 2810 2788 2788 2788 2788 2788 2810 2788 2810 2810 2810 2788 2810 2810 2810 2810 2810 2810 2810 2810 2810 2810 2810 2834 2810 2810 2810 2810 2009 2009 1998 1998 1998 1986 1986 1975 1975 1975 1975 1964 1964 1952 1941 1941 1941 1941 1941 1941 1931 1931 1931 1931 1931 1920 1920 1909 1909 1899 1899 1899 1899 1899 1899 1899 1899 1899 1899 1899 1899 1899 1888 1899 1888 1878 1878 1878 1878 1878 1888 1878 1878 1878 1878 1878 1878 1878 1878 1878 1878 1878 1878 1878 1878 1878 1878 1878 1868 1878 1868 1868 1878 1878 1878 1878 1878 1878 1878 1878 1878 1888 1888 1888 1888 1888 1888 1888 1888 1888 1888 1888 1888 1899 1899 1899 1899 1899 1899 1899 1899 1899 1888 1899 1899 1899 1899 1909 1909 1920 1920 1920 1920 1920 1931 1931 1931 1941 1941 1952 1952 1964 1964 1964 1964 1975 1975 1975 1975 1986 2009 2021 2021 2033 2033 2021 2033 2045 2057 2057 0 0 2788 2788 2788 2788 2788 2788 2810 2810 2810 2788 2788 2788 2788 2788 2788 2788 2788 2810 2810 2810 2810 2810 2810 2788 2788 2788 2788 2810 2810 2810 2810 2834 2834 2810 2810 2810 2810 2810 2810 2810 2810 2810 2810 2788 2810 2788 2788 2788 2788 2788 2788 2788 2788 2788 2788 2834 2810 2834 2834 2834 2788 2810 2788 2788 2788 2788 2788 2788 2788 2788 2788 2810 2810 2810 2810 2810 2810 2810 2810 2788 2788 2788 2788 2765 2788 2765 2765 2788 2765 2765 2788 2788 2788 2788 2788 2788 2788 2810 2765 2765 2810 2765 2765 2765 2765 2765 2765 2765 2765 2765 2788 2788 2788 2788 2810 2810 2810 2810 2810 2765 2765 2765 2765 2765 2788 2788 2788 2810 2810 2788 2810 2788 2788 2788 2788 2765 2788 2788 2765 2788 2788 2788 2788 2788 2765 2765 2765 2765 2765 2765 2765 2765 2765 2765 2788 2765 2765 2765 2788 2788 2810 2788 2810 2810 2810 2834 2834 2834 2810 2834 2834 2834 2834 2810 2810 2810 2810 2788 2788 2788 2788 2810 2810 2810 2810 2810 2810 2788 2788 2810 2788 2810 2810 2810 2810 2810 2810 2810 2810 2810 2810 2788 2765 2765 2788 2788 2788 2788 2788 2810 2810 2810 2788 2810 2788 2788 2765 2765 2788 2810 2810 2788 2743
    0 0 0 0 0 0 0 0 0 0 0 0 0 0 0 0 0 0 0 0 0 0 0 0 0 0 0 0 0 0 0 0 0 0 0 0 0 0 0 0 0 0 0 0 0 0 0 0 0 0 0 0 0 0 0 0 0 0 0 0 0 0 0 0 0 0 0 0 0 0 0 0 0 0 0 0 0 0 0 0 0 0 0 0 0 0 0 0 0 0 0 0 0 0 0 0 0 0 0 0 0 0 0 0 0 0 0 0 0 0 0 0 0 0 0 0 0 0 0 0 0 0 0 0 0 0 2834 2810 2834 2834 2834 2834 2834 2834 2834 2834 2834 2857 2857 2810 2810 2810 2834 2834 2810 2810 2810 2810 2810 2834 2810 2810 2810 2810 2810 2810 2810 2810 2810 2810 2788 2810 2810 2788 2810 2788 2788 2810 2810 2788 2810 2810 2810 2810 2810 2788 2788 2810 2788 2788 2788 2788 2788 2788 2788 2788 2788 2788 2788 2788 2788 2788 2788 2788 2788 2788 2788 2765 2765 2765 2765 2765 2765 2788 2765 2788 2788 2810 2810 2810 2810 2834 2810 2810 2810 2810 2810 2788 2788 2788 2788 2788 2810 2810 2810 2810 2810 2834 2834 2810 2788 2788 2788 2765 2765 2765 2788 2788 2788 2788 2788 2810 2788 2810 2788 2788 2810 2810 2810 2810 2810 2810 2810 2810 2810 2810 2810 2810 2810 2810 2810 2810 2810 2810 2810 2810 2810 2810 2810 2810 2834 2834 2834 2810 2810 2021 2021 2009 1998 1998 1986 1986 1975 1975 1975 1975 1964 1964 1964 1941 1941 1941 1941 1941 1941 1931 1931 1931 1931 1931 1931 1931 1909 1909 1909 1909 1899 1899 1899 1899 1899 1899 1899 1899 1899 1899 1899 1888 1888 1888 1878 1878 1878 1878 1878 1888 1878 1888 1878 1878 1878 1878 1878 1878 1878 1878 1878 1878 1878 1878 1878 1878 1868 1868 1868 1868 1868 1878 1878 1878 1878 1878 1878 1878 1878 1878 1888 1888 1888 1888 1888 1888 1888 1888 1888 1888 1888 1888 1899 1899 1899 1899 1899 1899 1899 1899 1899 1899 1899 1899 1899 1899 1909 1909 1909 1920 1920 1920 1920 1931 1931 1931 1941 1941 1952 1952 1964 1964 1964 1964 1975 1975 1975 1975 1986 2009 2009 2021 2021 2033 2021 2033 2045 2057 2057 0 2788 2788 2788 2788 2788 2788 2788 2810 2810 2810 2810 2788 2788 2788 2788 2788 2788 2810 2810 2834 2810 2810 2834 2810 2810 2810 2810 2810 2810 2834 2834 2834 2834 2834 2834 2834 2834 2834 2810 2834 2810 2834 2834 2810 2810 2810 2810 2810 2810 2788 2788 2788 2788 2788 2788 2788 2834 2834 2857 2857 2834 2834 2810 2810 2810 2810 2810 2810 2810 2788 2788 2788 2810 2810 2810 2810 2810 2810 2834 2810 2810 2810 2810 2810 2765 2788 2788 2788 2765 2765 2765 2788 2788 2788 2788 2788 2834 2834 2834 2788 2810 2810 2810 2810 2765 2765 2765 2765 2788 2788 2788 2788 2810 2810 2810 2810 2834 2834 2834 2810 2834 2788 2788 2788 2788 2788 2788 2788 2810 2810 2788 2810 2788 2788 2788 2788 2788 2788 2810 2788 2788 2788 2788 2788 2788 2788 2788 2788 2788 2788 2765 2788 2765 2788 2810 2788 2765 2765 2788 2788 2810 2810 2810 2810 2810 2834 2834 2834 2834 2834 2834 2857 2834 2834 2810 2810 2810 2788 2788 2788 2788 2788 2834 2834 2810 2810 2810 2810 2810 2788 2788 2788 2810 2810 2810 2810 2810 2810 2810 2810 2810 2810 2788 2788 2788 2788 2788 2788 2788 2788 2810 2810 2810 2810 2810 2810 2810 2810 2810 2810 2810 2810 2788 2765
    0 0 0 0 0 0 0 0 0 0 0 0 0 0 0 0 0 0 0 0 0 0 0 0 0 0 0 0 0 0 0 0 0 0 0 0 0 0 0 0 0 0 0 0 0 0 0 0 0 0 0 0 0 0 0 0 0 0 0 0 0 0 0 0 0 0 0 0 0 0 0 0 0 0 0 0 0 0 0 0 0 0 0 0 0 0 0 0 0 0 0 0 0 0 0 0 0 0 0 0 0 0 0 0 0 0 0 0 0 0 0 0 0 0 0 0 0 0 0 0 0 0 0 0 0 2834 2834 2810 2834 2834 2834 2834 2834 2857 2834 2857 2857 2857 2857 2834 2834 2834 2834 2834 2834 2810 2810 2810 2834 2834 2810 2810 2810 2810 2810 2810 2810 2810 2810 2810 2810 2810 2810 2810 2810 2810 2810 2810 2810 2810 2810 2810 2810 2810 2810 2810 2810 2810 2788 2810 2810 2788 2788 2788 2788 2788 2788 2788 2788 2810 2788 2788 2788 2788 2788 2810 2788 2788 2788 2765 2765 2765 2765 2788 2788 2788 2810 2810 2810 2834 2834 2834 2810 2810 2810 2810 2810 2788 2788 2788 2810 2810 2810 2810 2810 2834 2834 2834 2834 2810 2788 2788 2788 2788 2788 2788 2788 2810 2810 2788 2810 2810 2810 2810 2810 2788 2810 2810 2810 2810 2810 2810 2810 2810 2810 2810 2810 2810 2810 2810 2810 2810 2810 2810 2810 2810 2810 2810 2834 2834 2834 2834 2834 2810 2033 2021 2021 2009 2009 1998 1998 1986 1986 1975 1975 1975 1964 1964 1952 1941 1941 1941 1941 1941 1931 1931 1931 1931 1931 1931 1920 1931 1909 1909 1909 1909 1899 1899 1909 1909 1899 1899 1899 1899 1899 1899 1899 1888 1888 1888 1878 1878 1878 1878 1878 1888 1878 1888 1878 1888 1878 1878 1888 1888 1888 1888 1888 1888 1888 1878 1878 1878 1878 1878 1878 1868 1878 1878 1878 1878 1878 1878 1878 1878 1878 1878 1888 1888 1888 1888 1888 1888 1888 1888 1888 1888 1888 1888 1899 1899 1899 1899 1899 1899 1899 1899 1899 1888 1899 1899 1909 1909 1909 1909 1920 1920 1920 1920 1920 1931 1931 1931 1941 1941 1952 1952 1964 1964 1964 1964 1975 1975 1975 1975 1986 2009 2009 2021 2021 2033 2021 2021 2033 2033 2057 0 0 2810 2810 2810 2810 2810 2810 2834 2834 2834 2834 2834 2857 2834 2788 2788 2810 2810 2834 2834 2834 2834 2834 2834 2834 2810 2810 2810 2834 2834 2834 2834 2834 2834 2834 2857 2857 2834 2834 2834 2834 2834 2834 2810 2810 2810 2834 2834 2810 2810 2810 2810 2810 2810 2857 2857 2834 2834 2857 2857 2834 2834 2810 2810 2810 2810 2810 2810 2810 2810 2788 2810 2810 2810 2834 2810 2810 2834 2834 2810 2810 2810 2810 2834 2788 2810 2810 2810 2810 2788 2788 2788 2810 2788 2788 2788 2834 2834 2834 2788 2810 2810 2810 2810 2788 2810 2765 2788 2788 2810 2788 2810 2810 2810 2834 2834 2834 2834 2834 2834 2788 2788 2788 2788 2788 2788 2788 2810 2834 2834 2810 2810 2810 2810 2834 2834 2834 2834 2810 2788 2788 2788 2788 2810 2810 2788 2788 2788 2788 2788 2788 2788 2765 2788 2810 2765 2788 2788 2788 2810 2810 2810 2810 2834 2834 2857 2857 2834 2834 2834 2857 2857 2857 2857 2810 2810 2810 2810 2810 2788 2788 2810 2834 2834 2810 2834 2834 2810 2810 2788 2810 2788 2810 2810 2810 2810 2810 2810 2810 2810 2810 2810 2788 2788 2788 2788 2810 2788 2810 2810 2810 2810 2810 2810 2810 2788 2810 2788 2788 2788 2810 2788 2788 2765
    0 0 0 0 0 0 0 0 0 0 0 0 0 0 0 0 0 0 0 0 0 0 0 0 0 0 0 0 0 0 0 0 0 0 0 0 0 0 0 0 0 0 0 0 0 0 0 0 0 0 0 0 0 0 0 0 0 0 0 0 0 0 0 0 0 0 0 0 0 0 0 0 0 0 0 0 0 0 0 0 0 0 0 0 0 0 0 0 0 0 0 0 0 0 0 0 0 0 0 0 0 0 0 0 0 0 0 0 0 0 0 0 0 0 0 0 0 0 0 0 0 0 0 0 2857 2834 2834 2834 2834 2834 2834 2857 2857 2857 2857 2857 2857 2857 2857 2834 2834 2834 2834 2834 2834 2834 2834 2834 2834 2834 2834 2834 2810 2810 2810 2810 2810 2810 2810 2834 2810 2834 2834 2810 2834 2810 2810 2810 2810 2810 2834 2834 2834 2834 2834 2834 2834 2834 2810 2810 2810 2810 2810 2810 2810 2810 2810 2810 2810 2810 2810 2810 2810 2810 2810 2810 2810 2834 2788 2765 2765 2788 2788 2788 2788 2788 2810 2834 2834 2834 2834 2834 2834 2834 2810 2810 2810 2810 2810 2810 2810 2810 2810 2834 2834 2834 2834 2834 2834 2834 2810 2810 2810 2810 2810 2810 2810 2810 2810 2810 2810 2810 2810 2810 2810 2810 2810 2810 2810 2810 2810 2810 2810 2810 2810 2810 2810 2810 2810 2810 2810 2810 2810 2810 2810 2810 2810 2834 2834 2834 2834 2834 2810 2810 2033 2021 2021 2009 2009 1998 1998 1986 1986 1975 1975 1975 1964 1964 1952 1941 1941 1941 1941 1931 1931 1931 1931 1931 1931 1931 1920 1931 1920 1909 1909 1909 1909 1899 1909 1909 1909 1909 1899 1899 1899 1899 1899 1888 1899 1888 1878 1878 1878 1888 1878 1888 1878 1888 1878 1888 1878 1878 1878 1888 1888 1888 1888 1888 1888 1878 1878 1878 1878 1878 1878 1878 1878 1878 1878 1878 1878 1878 1878 1878 1878 1878 1888 1888 1888 1888 1888 1888 1888 1888 1888 1888 1888 1888 1888 1899 1899 1899 1899 1899 1899 1899 1899 1899 1909 1909 1909 1909 1920 1920 1920 1920 1920 1920 1920 1931 1931 1931 1941 1952 1952 1952 1964 1964 1964 1964 1975 1975 1986 1986 1986 2009 2009 2021 2033 2033 2021 2033 2045 2057 2057 0 0 2810 2810 2810 2788 2788 2810 2834 2834 2857 2857 2834 2857 2857 2857 2810 2834 2834 2834 2834 2834 2834 2834 2834 2834 2834 2834 2834 2834 2834 2834 2834 2834 2834 2834 2857 2857 2834 2834 2834 2834 2857 2857 2834 2810 2834 2834 2834 2834 2834 2834 2834 2857 2857 2857 2857 2857 2857 2857 2857 2857 2857 2834 2834 2834 2834 2834 2834 2834 2810 2810 2810 2834 2834 2834 2810 2834 2834 2834 2834 2834 2834 2834 2834 2810 2810 2810 2810 2810 2810 2810 2810 2810 2810 2810 2834 2834 2834 2834 2834 2810 2834 2834 2834 2834 2834 2810 2810 2810 2810 2810 2810 2810 2810 2810 2834 2834 2834 2834 2834 2834 2788 2788 2810 2810 2810 2810 2810 2834 2810 2810 2810 2810 2810 2834 2810 2810 2810 2810 2810 2810 2810 2810 2810 2810 2810 2788 2788 2810 2810 2788 2788 2788 2788 2810 2788 2788 2788 2788 2810 2810 2810 2810 2834 2834 2857 2857 2857 2857 2834 2857 2857 2857 2834 2834 2834 2834 2810 2810 2788 2810 2810 2810 2834 2834 2810 2834 2834 2810 2810 2810 2810 2810 2810 2834 2834 2834 2834 2810 2810 2810 2810 2810 2788 2810 2788 2810 2810 2810 2810 2810 2810 2810 2810 2810 2810 2810 2810 2788 2810 2810 2810 2788 2788
    0 0 0 0 0 0 0 0 0 0 0 0 0 0 0 0 0 0 0 0 0 0 0 0 0 0 0 0 0 0 0 0 0 0 0 0 0 0 0 0 0 0 0 0 0 0 0 0 0 0 0 0 0 0 0 0 0 0 0 0 0 0 0 0 0 0 0 0 0 0 0 0 0 0 0 0 0 0 0 0 0 0 0 0 0 0 0 0 0 0 0 0 0 0 0 0 0 0 0 0 0 0 0 0 0 0 0 0 0 0 0 0 0 0 0 0 0 0 0 0 0 0 0 0 2857 2857 2857 2834 2857 2857 2857 2857 2857 2857 2857 2857 2857 2857 2857 2834 2834 2834 2834 2834 2834 2834 2834 2834 2834 2834 2834 2834 2834 2834 2834 2834 2834 2834 2834 2834 2834 2834 2834 2834 2834 2834 2810 2810 2810 2810 2810 2834 2834 2834 2834 2810 2810 2810 2810 2810 2810 2810 2810 2834 2810 2810 2810 2810 2810 2810 2810 2810 2810 2810 2810 2834 2834 2810 2788 2788 2788 2788 2788 2788 2788 2810 2810 2834 2834 2834 2834 2834 2834 2834 2834 2810 2810 2810 2810 2810 2810 2834 2834 2834 2834 2834 2834 2834 2834 2834 2810 2810 2810 2810 2810 2810 2810 2810 2834 2810 2810 2810 2810 2810 2810 2810 2810 2810 2810 2810 2810 2810 2810 2834 2810 2810 2810 2810 2810 2810 2810 2810 2810 2834 2810 2834 2834 2834 2834 2834 2834 2834 2834 2834 2810 2021 2021 2021 2021 1998 1998 1986 1986 1975 1975 1975 1964 1964 1952 1952 1941 1941 1941 1941 1941 1931 1931 1931 1931 1931 1920 1931 1909 1909 1909 1909 1909 1899 1909 1909 1909 1909 1909 1899 1899 1899 1899 1888 1899 1888 1878 1878 1878 1888 1888 1888 1878 1878 1878 1878 1878 1878 1878 1888 1888 1888 1888 1888 1888 1878 1878 1878 1878 1878 1878 1878 1878 1878 1878 1878 1878 1878 1878 1878 1878 1878 1888 1888 1888 1888 1888 1888 1888 1888 1888 1888 1888 1888 1888 1899 1899 1899 1909 1899 1899 1909 1909 1909 1909 1909 1909 1909 1920 1920 1920 1920 1920 1920 1931 1931 1931 1931 1941 1952 1952 1964 1964 1964 1964 1964 1975 1975 1975 1986 1986 1998 2009 2021 2033 2033 2033 2033 2045 2057 2057 2057 0 2810 2810 2788 2788 2788 2810 2834 2857 2857 2857 2857 2881 2857 2857 2834 2834 2834 2857 2857 2857 2857 2857 2857 2834 2834 2834 2834 2857 2857 2857 2857 2857 2857 2857 2857 2857 2857 2857 2857 2857 2857 2857 2857 2834 2834 2834 2834 2857 2834 2834 2834 2834 2834 2857 2857 2857 2857 2857 2857 2857 2857 2857 2857 2857 2857 2834 2857 2834 2810 2810 2834 2834 2834 2834 2834 2834 2834 2857 2834 2834 2857 2834 2834 2810 2810 2810 2810 2810 2810 2810 2810 2834 2834 2834 2834 2834 2834 2834 2834 2810 2834 2834 2834 2834 2834 2810 2810 2810 2810 2810 2810 2810 2834 2834 2834 2834 2834 2834 2834 2788 2788 2788 2788 2810 2810 2810 2810 2834 2834 2834 2834 2810 2834 2834 2834 2810 2834 2834 2834 2834 2834 2834 2834 2834 2834 2810 2810 2810 2810 2788 2810 2810 2810 2834 2834 2788 2788 2810 2810 2810 2810 2810 2834 2834 2857 2857 2857 2857 2857 2857 2857 2857 2834 2810 2834 2834 2810 2810 2810 2810 2810 2834 2834 2810 2834 2834 2834 2810 2810 2810 2810 2810 2810 2834 2834 2834 2834 2810 2810 2810 2810 2810 2810 2810 2810 2810 2810 2810 2810 2810 2810 2810 2810 2810 2810 2810 2810 2810 2810 2834 2810 2810 2810
    0 0 0 0 0 0 0 0 0 0 0 0 0 0 0 0 0 0 0 0 0 0 0 0 0 0 0 0 0 0 0 0 0 0 0 0 0 0 0 0 0 0 0 0 0 0 0 0 0 0 0 0 0 0 0 0 0 0 0 0 0 0 0 0 0 0 0 0 0 0 0 0 0 0 0 0 0 0 0 0 0 0 0 0 0 0 0 0 0 0 0 0 0 0 0 0 0 0 0 0 0 0 0 0 0 0 0 0 0 0 0 0 0 0 0 0 0 0 0 0 0 0 0 0 2881 2857 2881 2857 2857 2857 2881 2881 2857 2881 2857 2857 2857 2857 2857 2834 2834 2834 2834 2834 2834 2834 2834 2857 2857 2857 2857 2834 2834 2834 2834 2834 2834 2834 2834 2857 2857 2834 2834 2834 2834 2834 2834 2834 2834 2834 2834 2834 2834 2834 2834 2810 2834 2834 2810 2834 2834 2834 2834 2834 2834 2834 2834 2834 2834 2834 2834 2834 2834 2810 2834 2834 2834 2834 2810 2810 2810 2810 2810 2810 2810 2788 2810 2834 2834 2834 2834 2834 2834 2834 2834 2834 2834 2834 2810 2810 2834 2834 2834 2834 2834 2834 2834 2857 2857 2834 2810 2810 2810 2834 2834 2834 2810 2834 2834 2834 2834 2834 2834 2834 2834 2810 2810 2810 2810 2810 2810 2834 2834 2834 2834 2834 2810 2834 2834 2834 2810 2810 2834 2834 2834 2834 2834 2834 2834 2834 2834 2834 2834 2834 2834 2021 2021 2021 2021 1998 1998 1986 1986 1975 1975 1975 1964 1964 1952 1952 1941 1952 1941 1941 1931 1931 1931 1931 1920 1920 1920 1920 1909 1909 1909 1909 1909 1909 1909 1909 1909 1909 1909 1899 1899 1899 1899 1888 1899 1899 1878 1878 1878 1888 1878 1878 1878 1878 1878 1878 1878 1878 1878 1878 1888 1878 1888 1888 1888 1878 1878 1878 1878 1878 1878 1878 1878 1878 1878 1878 1878 1878 1878 1878 1878 1888 1888 1888 1888 1888 1899 1888 1888 1888 1888 1888 1888 1888 1888 1899 1899 1899 1909 1899 1899 1909 1909 1909 1909 1920 1920 1920 1920 1920 1920 1920 1920 1920 1931 1931 1931 1931 1941 1952 1952 1964 1964 1964 1975 1975 1975 1986 1986 1986 1998 1998 2009 2021 2033 2033 2033 2033 2045 2045 2057 2057 0 2810 2810 2810 2788 2810 2834 2857 2857 2857 2857 2857 2881 2881 2881 2857 2857 2857 2857 2857 2857 2857 2857 2857 2857 2857 2857 2857 2857 2857 2857 2857 2857 2857 2857 2857 2857 2857 2857 2857 2857 2857 2857 2857 2857 2857 2857 2857 2857 2857 2834 2857 2857 2857 2857 2857 2857 2857 2857 2857 2857 2857 2857 2857 2857 2857 2857 2857 2834 2834 2834 2834 2834 2834 2834 2834 2834 2857 2857 2857 2857 2857 2857 2857 2834 2834 2834 2834 2810 2810 2810 2834 2834 2834 2834 2810 2810 2834 2834 2834 2834 2834 2834 2834 2857 2834 2834 2810 2810 2810 2810 2810 2834 2834 2834 2834 2834 2834 2834 2834 2834 2834 2788 2810 2810 2810 2810 2834 2834 2834 2834 2834 2834 2857 2834 2834 2834 2834 2834 2834 2834 2834 2834 2857 2857 2857 2834 2834 2834 2834 2810 2834 2834 2834 2834 2834 2834 2834 2834 2810 2834 2834 2834 2834 2834 2857 2857 2857 2857 2857 2857 2857 2857 2857 2834 2834 2834 2810 2810 2810 2810 2810 2810 2834 2810 2834 2834 2834 2810 2810 2810 2810 2810 2834 2834 2834 2834 2834 2810 2834 2810 2810 2810 2810 2810 2810 2810 2810 2810 2810 2810 2810 2810 2834 2834 2810 2834 2810 2834 2834 2834 2834 2834 2810
    0 0 0 0 0 0 0 0 0 0 0 0 0 0 0 0 0 0 0 0 0 0 0 0 0 0 0 0 0 0 0 0 0 0 0 0 0 0 0 0 0 0 0 0 0 0 0 0 0 0 0 0 0 0 0 0 0 0 0 0 0 0 0 0 0 0 0 0 0 0 0 0 0 0 0 0 0 0 0 0 0 0 0 0 0 0 0 0 0 0 0 0 0 0 0 0 0 0 0 0 0 0 0 0 0 0 0 0 0 0 0 0 0 0 0 0 0 0 0 0 0 0 0 2834 2857 2857 2857 2857 2857 2881 2881 2881 2881 2881 2881 2881 2881 2881 2857 2834 2834 2834 2857 2857 2857 2834 2834 2834 2834 2857 2834 2857 2834 2834 2834 2834 2834 2834 2834 2857 2857 2834 2857 2834 2834 2834 2834 2834 2834 2834 2834 2834 2857 2857 2857 2834 2834 2834 2834 2834 2834 2834 2834 2834 2834 2834 2834 2834 2834 2834 2834 2834 2834 2834 2834 2834 2834 2834 2834 2810 2810 2834 2834 2810 2810 2810 2834 2834 2834 2834 2834 2834 2834 2834 2834 2834 2834 2834 2834 2810 2834 2834 2834 2834 2857 2857 2857 2857 2857 2857 2834 2834 2834 2834 2834 2834 2834 2834 2834 2834 2834 2834 2834 2834 2834 2834 2834 2834 2810 2834 2834 2834 2834 2834 2834 2834 2834 2834 2834 2834 2834 2834 2834 2834 2834 2834 2834 2834 2834 2834 2834 2834 2834 2857 2857 2033 2033 2021 2021 1998 1998 1986 1986 1975 1975 1975 1964 1964 1952 1952 1952 1952 1941 1941 1941 1931 1931 1931 1920 1920 1920 1920 1909 1909 1909 1909 1909 1909 1909 1909 1909 1909 1909 1899 1899 1899 1899 1888 1899 1899 1878 1878 1878 1888 1888 1878 1878 1878 1878 1878 1888 1878 1878 1888 1878 1878 1878 1888 1888 1878 1878 1878 1878 1878 1878 1878 1878 1878 1878 1878 1878 1878 1878 1878 1878 1888 1888 1888 1888 1888 1899 1888 1888 1888 1888 1899 1888 1888 1899 1899 1899 1899 1909 1899 1899 1909 1909 1909 1920 1920 1920 1920 1920 1920 1920 1920 1920 1920 1931 1931 1920 1931 1941 1952 1952 1952 1964 1964 1964 1975 1975 1975 1975 1986 1998 1998 2009 2021 2033 2033 2021 2033 2033 2033 2033 2033 0 2810 2810 2810 2810 2834 2834 2857 2857 2857 2857 2857 2881 2881 2881 2857 2857 2857 2857 2857 2857 2857 2857 2857 2857 2857 2857 2857 2857 2857 2857 2857 2857 2857 2857 2881 2881 2857 2857 2857 2857 2857 2857 2857 2857 2857 2857 2857 2857 2857 2857 2857 2857 2857 2857 2857 2857 2857 2857 2881 2857 2857 2881 2881 2881 2881 2857 2857 2857 2857 2857 2857 2857 2857 2834 2834 2834 2857 2857 2857 2857 2857 2857 2857 2834 2834 2810 2834 2810 2810 2810 2834 2834 2834 2834 2834 2834 2834 2834 2834 2834 2834 2834 2834 2834 2834 2834 2834 2834 2834 2834 2834 2834 2834 2834 2834 2810 2810 2834 2810 2857 2788 2788 2788 2810 2810 2810 2834 2834 2834 2834 2834 2834 2834 2834 2834 2834 2834 2834 2834 2834 2834 2857 2857 2857 2857 2857 2857 2857 2857 2834 2834 2834 2834 2857 2834 2834 2810 2834 2834 2834 2834 2834 2834 2834 2857 2857 2857 2857 2857 2857 2857 2857 2857 2834 2834 2834 2834 2834 2810 2834 2834 2834 2834 2834 2834 2834 2834 2834 2834 2834 2834 2834 2834 2834 2834 2834 2834 2834 2834 2834 2810 2834 2810 2834 2810 2834 2834 2834 2834 2834 2810 2834 2834 2834 2834 2834 2834 2834 2834 2834 2834 2834 2834
    0 0 0 0 0 0 0 0 0 0 0 0 0 0 0 0 0 0 0 0 0 0 0 0 0 0 0 0 0 0 0 0 0 0 0 0 0 0 0 0 0 0 0 0 0 0 0 0 0 0 0 0 0 0 0 0 0 0 0 0 0 0 0 0 0 0 0 0 0 0 0 0 0 0 0 0 0 0 0 0 0 0 0 0 0 0 0 0 0 0 0 0 0 0 0 0 0 0 0 0 0 0 0 0 0 0 0 0 0 0 0 0 0 0 0 0 0 0 0 0 0 0 0 2834 2857 2857 2857 2857 2857 2881 2881 2881 2881 2881 2881 2881 2881 2881 2881 2857 2857 2857 2857 2857 2857 2834 2834 2834 2834 2857 2857 2857 2834 2834 2834 2834 2834 2834 2857 2857 2857 2857 2857 2857 2834 2834 2834 2834 2834 2834 2857 2834 2857 2857 2857 2834 2834 2834 2834 2834 2834 2834 2834 2834 2834 2834 2834 2834 2834 2834 2834 2834 2834 2834 2834 2834 2857 2857 2834 2834 2834 2834 2834 2810 2810 2810 2834 2834 2834 2857 2834 2857 2857 2857 2834 2834 2834 2834 2834 2834 2834 2834 2834 2857 2857 2857 2857 2857 2857 2857 2834 2834 2834 2834 2834 2834 2834 2834 2834 2834 2834 2834 2834 2834 2834 2834 2834 2834 2834 2834 2834 2834 2834 2834 2834 2834 2834 2834 2834 2834 2834 2834 2834 2834 2834 2834 2834 2834 2834 2834 2834 2834 2881 2857 2045 2033 2033 2021 2009 1998 1998 1986 1986 1986 1975 1975 1964 1964 1964 1952 1952 1952 1952 1941 1941 1931 1931 1931 1931 1920 1920 1920 1920 1909 1909 1909 1909 1909 1909 1909 1909 1909 1899 1899 1899 1899 1899 1899 1888 1888 1878 1878 1878 1888 1888 1878 1878 1878 1878 1878 1888 1878 1878 1888 1888 1888 1878 1878 1888 1878 1878 1878 1878 1878 1878 1878 1878 1878 1878 1878 1878 1878 1878 1878 1878 1878 1878 1878 1878 1888 1888 1888 1888 1888 1888 1888 1888 1888 1888 1899 1899 1899 1899 1899 1899 1909 1909 1909 1920 1920 1920 1920 1920 1920 1920 1920 1920 1920 1931 1931 1931 1931 1941 1952 1952 1964 1964 1964 1964 1975 1975 1975 1975 1986 1998 1998 2009 2021 2021 2033 2021 2033 2033 2033 2033 0 0 2788 2810 2810 2810 2834 2834 2857 2857 2857 2881 2881 2881 2881 2881 2857 2857 2857 2857 2857 2857 2857 2857 2857 2857 2857 2857 2857 2857 2857 2881 2881 2881 2857 2881 2881 2881 2881 2881 2857 2857 2857 2857 2857 2857 2857 2881 2881 2857 2857 2857 2857 2881 2857 2881 2881 2881 2881 2881 2881 2881 2857 2881 2857 2881 2881 2881 2881 2857 2857 2857 2857 2857 2834 2857 2857 2857 2857 2857 2857 2857 2857 2857 2857 2834 2834 2834 2834 2810 2810 2810 2834 2857 2834 2857 2857 2834 2834 2857 2857 2857 2834 2834 2834 2834 2834 2834 2834 2834 2834 2834 2834 2834 2834 2857 2857 2857 2834 2857 2857 2857 2834 2834 2834 2810 2810 2810 2810 2810 2834 2834 2834 2834 2834 2834 2834 2834 2834 2834 2834 2834 2834 2857 2857 2857 2857 2857 2857 2857 2857 2834 2857 2857 2857 2857 2857 2857 2857 2857 2834 2834 2834 2834 2834 2834 2857 2857 2857 2857 2857 2857 2857 2857 2857 2834 2834 2834 2834 2834 2834 2834 2834 2834 2857 2857 2834 2834 2857 2834 2834 2834 2834 2834 2857 2834 2857 2834 2857 2834 2834 2834 2834 2834 2810 2834 2834 2834 2834 2834 2834 2834 2834 2857 2857 2857 2834 2834 2834 2834 2834 2834 2834 2834 2834
    0 0 0 0 0 0 0 0 0 0 0 0 0 0 0 0 0 0 0 0 0 0 0 0 0 0 0 0 0 0 0 0 0 0 0 0 0 0 0 0 0 0 0 0 0 0 0 0 0 0 0 0 0 0 0 0 0 0 0 0 0 0 0 0 0 0 0 0 0 0 0 0 0 0 0 0 0 0 0 0 0 0 0 0 0 0 0 0 0 0 0 0 0 0 0 0 0 0 0 0 0 0 0 0 0 0 0 0 0 0 0 0 0 0 0 0 0 0 0 0 0 0 0 2834 2857 2857 2881 2881 2881 2881 2881 2905 2905 2905 2881 2881 2881 2881 2881 2857 2857 2857 2857 2857 2857 2834 2857 2857 2857 2857 2857 2857 2857 2834 2834 2834 2857 2857 2857 2857 2857 2857 2857 2857 2857 2857 2857 2857 2857 2857 2857 2857 2834 2857 2834 2834 2857 2857 2834 2834 2834 2857 2857 2857 2857 2834 2857 2857 2857 2834 2834 2834 2857 2834 2857 2857 2857 2857 2857 2857 2834 2834 2857 2834 2834 2834 2834 2857 2857 2857 2834 2857 2857 2857 2857 2834 2857 2834 2857 2834 2834 2857 2857 2857 2857 2857 2857 2857 2857 2857 2834 2834 2834 2834 2834 2834 2834 2834 2857 2857 2857 2834 2834 2834 2857 2834 2834 2834 2834 2834 2834 2834 2834 2834 2834 2834 2834 2834 2834 2857 2857 2834 2857 2834 2834 2834 2834 2834 2834 2834 2834 2834 2881 2881 2033 2033 2033 2021 2009 1998 1998 1986 1986 1986 1975 1964 1964 1952 1952 1952 1952 1952 1952 1952 1952 1941 1931 1931 1931 1931 1920 1920 1909 1899 1909 1909 1909 1909 1909 1899 1899 1909 1899 1899 1899 1899 1899 1899 1899 1899 1888 1878 1878 1888 1888 1878 1888 1878 1878 1878 1878 1878 1878 1888 1888 1888 1878 1888 1888 1888 1888 1878 1878 1878 1878 1878 1878 1878 1888 1878 1888 1878 1878 1878 1878 1878 1878 1878 1878 1888 1888 1888 1888 1888 1888 1888 1888 1888 1888 1888 1899 1899 1909 1899 1909 1909 1909 1909 1920 1920 1920 1920 1920 1920 1920 1920 1920 1931 1931 1920 1931 1931 1941 1952 1964 1964 1964 1964 1975 1975 1975 1975 1975 1986 1986 1998 2009 2009 2021 2009 2033 2033 2033 2033 2033 0 0 2810 2810 2810 2834 2834 2857 2857 2881 2857 2881 2881 2881 2881 2881 2857 2857 2857 2857 2857 2857 2857 2857 2881 2857 2881 2857 2881 2857 2857 2857 2881 2881 2881 2881 2881 2881 2881 2881 2881 2881 2881 2881 2881 2857 2881 2881 2881 2881 2881 2881 2881 2881 2881 2881 2881 2881 2881 2881 2881 2881 2881 2881 2881 2881 2881 2881 2881 2881 2881 2881 2857 2857 2857 2857 2857 2857 2857 2857 2857 2857 2857 2857 2857 2834 2834 2834 2834 2834 2810 2810 2834 2857 2834 2857 2857 2834 2857 2857 2857 2857 2857 2857 2857 2857 2857 2857 2834 2834 2834 2834 2834 2834 2834 2834 2857 2857 2810 2810 2857 2857 2857 2810 2810 2834 2810 2810 2834 2834 2834 2857 2857 2857 2857 2857 2857 2857 2857 2834 2834 2857 2857 2857 2857 2857 2857 2857 2857 2857 2857 2857 2857 2857 2857 2857 2857 2857 2857 2857 2834 2834 2834 2857 2857 2857 2857 2857 2857 2857 2857 2857 2857 2857 2857 2834 2834 2834 2834 2834 2834 2834 2834 2857 2857 2857 2834 2857 2857 2857 2857 2857 2857 2857 2857 2857 2857 2857 2857 2834 2834 2834 2834 2834 2834 2834 2834 2834 2857 2857 2857 2834 2857 2857 2881 2857 2834 2834 2857 2834 2834 2834 2834 2834 2834
    0 0 0 0 0 0 0 0 0 0 0 0 0 0 0 0 0 0 0 0 0 0 0 0 0 0 0 0 0 0 0 0 0 0 0 0 0 0 0 0 0 0 0 0 0 0 0 0 0 0 0 0 0 0 0 0 0 0 0 0 0 0 0 0 0 0 0 0 0 0 0 0 0 0 0 0 0 0 0 0 0 0 0 0 0 0 0 0 0 0 0 0 0 0 0 0 0 0 0 0 0 0 0 0 0 0 0 0 0 0 0 0 0 0 0 0 0 0 0 0 0 0 0 2834 2857 2857 2881 2881 2881 2881 2881 2905 2905 2905 2881 2881 2881 2905 2881 2857 2857 2857 2881 2881 2857 2857 2857 2857 2857 2857 2857 2857 2857 2857 2834 2834 2857 2834 2857 2857 2857 2857 2857 2857 2857 2857 2857 2857 2857 2857 2857 2857 2857 2857 2834 2857 2857 2857 2857 2857 2857 2857 2857 2857 2857 2857 2857 2857 2857 2857 2834 2834 2857 2834 2857 2857 2857 2857 2857 2857 2834 2857 2857 2857 2834 2834 2857 2857 2857 2857 2857 2857 2857 2857 2857 2857 2857 2857 2857 2857 2857 2857 2857 2857 2857 2857 2881 2881 2881 2857 2834 2834 2834 2834 2834 2834 2834 2834 2857 2857 2857 2857 2857 2857 2857 2857 2834 2834 2834 2857 2857 2857 2857 2834 2834 2834 2834 2857 2857 2857 2857 2857 2857 2857 2857 2857 2857 2857 2834 2905 2905 2881 2905 2905 2033 2033 2021 2021 2009 1998 1998 1998 1986 1986 1975 1975 1964 1952 1952 1952 1941 1941 1952 1941 1941 1941 1931 1931 1931 1931 1909 1909 1909 1899 1909 1909 1909 1909 1909 1899 1899 1909 1899 1899 1899 1899 1899 1899 1899 1899 1888 1888 1888 1888 1878 1878 1888 1878 1878 1878 1878 1878 1878 1888 1888 1888 1888 1888 1888 1888 1888 1888 1878 1878 1878 1878 1878 1878 1888 1878 1888 1888 1888 1878 1878 1878 1878 1878 1878 1888 1888 1888 1888 1888 1888 1888 1888 1888 1888 1899 1899 1899 1909 1899 1909 1909 1909 1909 1909 1920 1920 1920 1920 1920 1920 1920 1931 1931 1931 1931 1931 1931 1952 1952 1952 1964 1964 1964 1975 1975 1975 1975 1975 1986 1998 1998 2009 2009 2021 2009 2021 2033 2033 2033 0 0 0 2834 2834 2834 2834 2857 2857 2857 2857 2857 2881 2881 2881 2857 2881 2881 2881 2857 2857 2857 2857 2857 2857 2881 2857 2881 2857 2857 2857 2857 2857 2881 2881 2881 2881 2881 2881 2881 2881 2881 2881 2881 2881 2881 2881 2881 2881 2881 2881 2881 2881 2881 2881 2881 2881 2881 2881 2881 2881 2881 2881 2881 2857 2857 2857 2881 2881 2881 2881 2881 2881 2881 2881 2857 2857 2857 2857 2857 2857 2857 2881 2881 2881 2881 2834 2834 2834 2834 2857 2834 2834 2857 2857 2857 2857 2857 2857 2857 2857 2857 2857 2857 2857 2857 2857 2857 2857 2834 2834 2834 2834 2834 2834 2834 2810 2857 2857 2810 2810 2810 2857 2857 2810 2810 2834 2810 2834 2810 2834 2834 2857 2857 2857 2857 2857 2857 2857 2857 2857 2857 2857 2857 2857 2857 2857 2857 2857 2857 2857 2857 2857 2857 2857 2881 2881 2857 2857 2857 2857 2857 2857 2857 2857 2857 2857 2857 2857 2857 2857 2857 2857 2857 2834 2857 2834 2834 2834 2834 2857 2857 2857 2857 2857 2857 2881 2857 2857 2857 2857 2857 2857 2857 2881 2881 2881 2881 2881 2881 2857 2857 2834 2834 2857 2834 2834 2857 2857 2857 2857 2881 2857 2881 2881 2881 2881 2857 2857 2857 2857 2834 2834 2834 2834 2834
    0 0 0 0 0 0 0 0 0 0 0 0 0 0 0 0 0 0 0 0 0 0 0 0 0 0 0 0 0 0 0 0 0 0 0 0 0 0 0 0 0 0 0 0 0 0 0 0 0 0 0 0 0 0 0 0 0 0 0 0 0 0 0 0 0 0 0 0 0 0 0 0 0 0 0 0 0 0 0 0 0 0 0 0 0 0 0 0 0 0 0 0 0 0 0 0 0 0 0 0 0 0 0 0 0 0 0 0 0 0 0 0 0 0 0 0 0 0 0 0 0 0 0 2834 2881 2881 2905 2905 2905 2905 2905 2905 2905 2905 2905 2905 2905 2905 2905 2881 2881 2881 2905 2881 2881 2881 2857 2857 2857 2857 2857 2857 2857 2857 2857 2834 2834 2834 2834 2857 2857 2857 2857 2857 2857 2857 2857 2857 2857 2857 2857 2857 2857 2857 2857 2857 2857 2857 2857 2857 2857 2857 2857 2881 2857 2857 2857 2857 2857 2857 2857 2857 2857 2857 2857 2857 2857 2857 2857 2857 2857 2857 2857 2857 2857 2834 2857 2857 2857 2857 2857 2857 2857 2881 2881 2857 2857 2857 2857 2857 2857 2857 2881 2881 2881 2881 2881 2881 2881 2881 2857 2857 2857 2857 2857 2857 2857 2857 2857 2857 2857 2857 2857 2857 2857 2857 2857 2857 2857 2881 2881 2857 2857 2857 2857 2857 2857 2834 2834 2881 2857 2857 2881 2857 2857 2857 2881 2881 2881 2905 2905 2905 2905 2905 2033 2021 2021 2021 2021 2021 1998 1986 1986 1986 1975 1975 1964 1952 1952 1952 1952 1941 1952 1941 1941 1941 1931 1931 1931 1920 1909 1909 1909 1899 1909 1909 1909 1899 1909 1899 1899 1899 1899 1899 1899 1899 1899 1899 1899 1899 1888 1878 1878 1888 1888 1878 1888 1878 1878 1888 1888 1878 1878 1888 1888 1888 1888 1888 1888 1888 1888 1878 1888 1878 1878 1878 1878 1878 1878 1878 1888 1888 1888 1878 1888 1878 1878 1888 1888 1888 1888 1888 1888 1888 1888 1888 1888 1888 1888 1899 1899 1899 1899 1899 1909 1909 1909 1909 1920 1920 1920 1920 1920 1920 1920 1931 1931 1931 1931 1931 1931 1941 1952 1952 1952 1952 1964 1964 1975 1975 1975 1975 1975 1986 1998 1998 2009 2009 2021 2021 2033 2033 2033 2033 0 0 0 2857 2834 2834 2857 2857 2857 2857 2857 2881 2881 2881 2881 2881 2881 2881 2881 2881 2881 2881 2881 2857 2881 2881 2881 2881 2881 2881 2857 2881 2881 2881 2881 2881 2881 2905 2881 2881 2881 2881 2881 2881 2881 2881 2881 2881 2881 2881 2881 2881 2881 2881 2881 2881 2881 2881 2881 2881 2881 2881 2881 2881 2857 2881 2857 2857 2881 2881 2857 2881 2881 2881 2881 2881 2881 2881 2881 2881 2881 2881 2881 2881 2881 2881 2834 2834 2834 2834 2857 2834 2834 2834 2857 2857 2857 2857 2857 2857 2857 2857 2857 2857 2857 2857 2857 2857 2857 2834 2834 2834 2834 2834 2834 2834 2810 2810 2810 2810 2857 2857 2857 2857 2857 2857 2834 2857 2834 2857 2857 2834 2857 2857 2857 2857 2857 2857 2857 2857 2857 2857 2857 2857 2857 2857 2857 2857 2857 2857 2857 2857 2857 2881 2881 2881 2881 2857 2881 2881 2881 2857 2857 2857 2857 2857 2857 2857 2857 2857 2857 2857 2857 2857 2834 2857 2834 2834 2834 2857 2857 2881 2881 2857 2881 2881 2881 2857 2857 2881 2857 2857 2881 2881 2881 2881 2881 2881 2881 2881 2881 2881 2857 2857 2857 2857 2834 2857 2857 2881 2881 2881 2881 2881 2905 2905 2905 2881 2881 2881 2881 2881 2881 2881 2881 2881
    0 0 0 0 0 0 0 0 0 0 0 0 0 0 0 0 0 0 0 0 0 0 0 0 0 0 0 0 0 0 0 0 0 0 0 0 0 0 0 0 0 0 0 0 0 0 0 0 0 0 0 0 0 0 0 0 0 0 0 0 0 0 0 0 0 0 0 0 0 0 0 0 0 0 0 0 0 0 0 0 0 0 0 0 0 0 0 0 0 0 0 0 0 0 0 0 0 0 0 0 0 0 0 0 0 0 0 0 0 0 0 0 0 0 0 0 0 0 0 0 0 0 0 2834 2881 2905 2930 2930 2930 2930 2930 2930 2930 2930 2905 2905 2905 2930 2930 2905 2905 2905 2905 2905 2905 2881 2905 2905 2905 2881 2881 2881 2857 2857 2857 2857 2857 2857 2857 2857 2857 2857 2857 2857 2881 2857 2857 2857 2857 2857 2857 2857 2857 2857 2857 2857 2857 2857 2857 2857 2857 2857 2881 2881 2881 2881 2857 2857 2857 2857 2857 2857 2857 2857 2857 2857 2857 2857 2857 2857 2857 2857 2857 2857 2857 2857 2857 2857 2857 2857 2857 2857 2881 2881 2881 2857 2857 2857 2857 2857 2857 2881 2881 2881 2881 2881 2881 2881 2881 2881 2857 2857 2857 2857 2857 2857 2857 2857 2881 2857 2857 2857 2857 2857 2881 2857 2857 2857 2881 2881 2881 2881 2881 2881 2881 2905 2857 2857 2881 2881 2881 2881 2881 2881 2881 2881 2881 2881 2881 2905 2905 2905 2905 2905 2905 2033 2021 2021 2021 2009 1986 1986 1986 1986 1975 1964 1975 1964 1952 1952 1941 1952 1952 1941 1941 1941 1941 1931 1931 1920 1920 1909 1909 1909 1909 1909 1909 1899 1909 1899 1899 1899 1899 1899 1899 1899 1899 1899 1899 1899 1888 1888 1888 1888 1878 1878 1878 1878 1878 1878 1888 1878 1888 1888 1888 1888 1888 1888 1888 1888 1888 1888 1888 1878 1878 1878 1878 1878 1878 1878 1888 1888 1888 1878 1888 1888 1888 1888 1888 1888 1888 1888 1888 1888 1888 1888 1888 1888 1888 1899 1899 1899 1899 1899 1909 1909 1909 1909 1909 1920 1920 1920 1920 1920 1920 1931 1931 1931 1931 1931 1941 1941 1952 1952 1952 1964 1964 1964 1975 1975 1975 1975 1975 1986 1998 2009 2009 2021 2021 2021 2021 2033 2033 2033 0 0 0 2857 2857 2857 2857 2857 2857 2857 2857 2857 2881 2881 2881 2881 2881 2881 2881 2905 2905 2905 2881 2881 2881 2881 2881 2881 2881 2881 2857 2881 2881 2881 2881 2881 2881 2905 2905 2905 2905 2881 2881 2881 2905 2881 2881 2905 2905 2905 2905 2881 2881 2881 2881 2881 2881 2881 2881 2905 2881 2881 2881 2881 2881 2881 2857 2857 2857 2881 2881 2881 2881 2881 2881 2881 2881 2881 2881 2881 2881 2881 2881 2881 2881 2881 2834 2834 2834 2857 2857 2857 2834 2834 2857 2857 2857 2857 2857 2857 2881 2857 2857 2857 2857 2857 2857 2857 2857 2857 2834 2834 2834 2834 2834 2834 2834 2834 2834 2834 2834 2834 2857 2834 2834 2834 2834 2834 2834 2857 2857 2857 2857 2857 2857 2857 2857 2857 2881 2857 2857 2857 2857 2857 2857 2857 2857 2857 2857 2857 2857 2857 2857 2881 2881 2881 2881 2881 2881 2881 2881 2881 2881 2881 2881 2881 2881 2857 2857 2857 2857 2857 2857 2857 2857 2857 2834 2834 2834 2834 2857 2857 2881 2857 2881 2881 2881 2881 2881 2881 2881 2881 2881 2881 2905 2905 2881 2881 2881 2881 2881 2881 2857 2857 2881 2881 2834 2834 2857 2881 2881 2905 2881 2881 2905 2905 2905 2905 2881 2881 2905 2881 2881 2905 2881 2881
    0 0 0 0 0 0 0 0 0 0 0 0 0 0 0 0 0 0 0 0 0 0 0 0 0 0 0 0 0 0 0 0 0 0 0 0 0 0 0 0 0 0 0 0 0 0 0 0 0 0 0 0 0 0 0 0 0 0 0 0 0 0 0 0 0 0 0 0 0 0 0 0 0 0 0 0 0 0 0 0 0 0 0 0 0 0 0 0 0 0 0 0 0 0 0 0 0 0 0 0 0 0 0 0 0 0 0 0 0 0 0 0 0 0 0 0 0 0 0 0 0 0 0 0 0 2930 2955 2955 2930 2930 2930 2930 2930 2930 2905 2905 2930 2930 2930 2905 2905 2905 2930 2930 2905 2905 2905 2905 2905 2905 2905 2905 2881 2857 2857 2857 2857 2857 2857 2857 2857 2857 2857 2881 2881 2857 2881 2857 2857 2857 2857 2857 2857 2857 2857 2857 2857 2857 2857 2857 2857 2857 2881 2881 2881 2881 2881 2857 2857 2857 2857 2857 2857 2857 2857 2857 2857 2857 2857 2857 2857 2857 2857 2881 2857 2857 2857 2881 2857 2881 2881 2881 2881 2881 2881 2881 2881 2881 2881 2857 2881 2881 2905 2881 2881 2881 2881 2905 2881 2881 2857 2857 2881 2881 2857 2857 2857 2857 2881 2881 2881 2881 2881 2881 2881 2881 2881 2881 2881 2905 2905 2905 2881 2905 2905 2905 2905 2905 2881 2905 2905 2881 2905 2905 2881 2881 2881 2881 2905 2905 2905 2905 2905 2905 2905 2033 2021 2021 2009 1998 1986 1986 1986 1975 1975 1975 1964 1964 1952 1952 1952 1952 1952 1952 1952 1941 1941 1931 1931 1931 1920 1920 1909 1909 1909 1909 1909 1899 1899 1899 1899 1899 1899 1899 1899 1899 1899 1899 1899 1899 1888 1888 1888 1888 1878 1878 1888 1878 1888 1878 1888 1878 1878 1888 1888 1888 1888 1888 1888 1888 1888 1888 1888 1878 1878 1878 1878 1878 1878 1878 1888 1888 1888 1878 1888 1888 1888 1888 1888 1888 1888 1888 1888 1888 1888 1888 1888 1888 1888 1899 1899 1899 1909 1909 1909 1909 1909 1909 1920 1920 1920 1920 1920 1920 1920 1931 1931 1931 1931 1941 1941 1952 1952 1952 1964 1964 1964 1964 1975 1975 1975 1975 1975 1986 1998 2009 2021 2021 2021 2021 2021 2021 2021 2021 0 0 0 2905 2881 2881 2857 2857 2881 2881 2881 2881 2881 2881 2881 2881 2881 2905 2905 2905 2905 2905 2905 2905 2905 2905 2905 2905 2881 2881 2881 2881 2881 2881 2881 2905 2881 2905 2881 2905 2905 2881 2881 2881 2905 2905 2905 2905 2905 2905 2905 2881 2881 2881 2905 2905 2905 2905 2905 2905 2905 2905 2905 2905 2881 2881 2881 2881 2881 2905 2881 2881 2881 2881 2881 2881 2881 2881 2881 2881 2881 2881 2881 2881 2881 2881 2857 2857 2857 2857 2857 2857 2857 2857 2857 2857 2857 2857 2857 2857 2881 2857 2857 2857 2857 2857 2857 2857 2857 2857 2857 2857 2857 2834 2834 2834 2834 2834 2834 2834 2857 2857 2857 2857 2834 2834 2834 2834 2857 2834 2834 2834 2857 2857 2857 2857 2857 2857 2881 2881 2857 2857 2857 2857 2857 2857 2857 2857 2857 2857 2857 2857 2857 2857 2857 2857 2881 2857 2881 2881 2881 2881 2881 2881 2881 2881 2881 2881 2857 2881 2881 2857 2857 2857 2857 2881 2857 2857 2834 2857 2857 2881 2881 2857 2881 2881 2881 2905 2881 2881 2881 2881 2905 2905 2905 2905 2905 2905 2905 2905 2905 2905 2857 2834 2881 2881 2857 2881 2881 2881 2905 2905 2905 2905 2905 2905 2905 2905 2881 2881 2881 2881 2881 2905 2857 2857
    0 0 0 0 0 0 0 0 0 0 0 0 0 0 0 0 0 0 0 0 0 0 0 0 0 0 0 0 0 0 0 0 0 0 0 0 0 0 0 0 0 0 0 0 0 0 0 0 0 0 0 0 0 0 0 0 0 0 0 0 0 0 0 0 0 0 0 0 0 0 0 0 0 0 0 0 0 0 0 0 0 0 0 0 0 0 0 0 0 0 0 0 0 0 0 0 0 0 0 0 0 0 0 0 0 0 0 0 0 0 0 0 0 0 0 0 0 0 0 0 0 0 0 0 2930 2955 2955 2955 2930 2930 2930 2930 2930 2905 2905 2905 2930 2930 2930 2905 2930 2930 2930 2930 2905 2905 2930 2905 2930 2905 2905 2905 2905 2857 2857 2857 2857 2857 2857 2857 2857 2881 2881 2881 2881 2881 2881 2857 2857 2857 2857 2857 2857 2857 2857 2881 2881 2881 2857 2881 2881 2881 2881 2881 2881 2881 2881 2881 2881 2857 2857 2857 2857 2857 2857 2857 2881 2881 2881 2881 2881 2881 2881 2881 2857 2857 2881 2881 2881 2881 2881 2881 2881 2881 2881 2881 2881 2881 2881 2881 2881 2905 2930 2905 2905 2905 2905 2905 2905 2905 2857 2881 2881 2881 2881 2881 2881 2881 2905 2881 2881 2881 2881 2881 2881 2881 2881 2881 2905 2905 2905 2905 2905 2905 2905 2905 2905 2905 2905 2905 2905 2905 2905 2905 2905 2905 2905 2905 2905 2905 2905 2905 2905 2930 2905 2033 2033 2021 2009 2009 1998 1986 1986 1986 1975 1964 1964 1964 1964 1952 1952 1952 1941 1941 1941 1941 1941 1941 1931 1931 1931 1931 1920 1920 1920 1909 1909 1899 1899 1899 1899 1899 1899 1899 1899 1899 1899 1899 1899 1899 1888 1888 1888 1888 1888 1888 1888 1878 1888 1888 1888 1888 1878 1888 1888 1888 1888 1888 1888 1888 1888 1888 1888 1888 1888 1888 1878 1878 1878 1878 1888 1888 1888 1878 1888 1888 1888 1888 1888 1888 1888 1888 1888 1888 1888 1888 1888 1888 1899 1899 1899 1899 1899 1909 1909 1909 1909 1909 1909 1920 1920 1920 1920 1931 1931 1931 1931 1931 1941 1941 1941 1952 1952 1952 1964 1964 1964 1964 1975 1975 1975 1975 1986 1986 1998 2009 2021 2021 2021 2021 2021 2021 0 0 0 0 0 2905 2881 2881 2881 2881 2881 2881 2881 2881 2881 2881 2905 2881 2905 2905 2905 2930 2930 2930 2905 2930 2930 2930 2905 2905 2930 2905 2881 2881 2881 2905 2905 2905 2905 2930 2905 2905 2905 2905 2905 2905 2905 2905 2905 2905 2905 2930 2905 2905 2881 2905 2905 2905 2905 2905 2905 2905 2905 2905 2905 2905 2905 2881 2881 2881 2881 2881 2881 2881 2881 2905 2905 2905 2905 2881 2905 2905 2905 2905 2905 2881 2881 2881 2857 2857 2857 2857 2857 2857 2857 2857 2857 2857 2857 2857 2857 2905 2905 2857 2881 2881 2881 2857 2857 2857 2857 2857 2857 2857 2857 2857 2857 2857 2857 2857 2857 2857 2857 2857 2857 2857 2857 2834 2857 2857 2857 2857 2857 2857 2857 2857 2857 2857 2857 2857 2881 2881 2881 2881 2881 2881 2881 2857 2857 2857 2857 2857 2857 2857 2857 2857 2857 2857 2881 2881 2881 2881 2881 2881 2905 2905 2881 2881 2905 2881 2857 2881 2881 2857 2857 2857 2857 2930 2857 2881 2857 2857 2857 2881 2881 2857 2881 2881 2881 2881 2905 2881 2881 2905 2905 2905 2905 2905 2881 2930 2905 2930 2930 2905 2905 2881 2905 2905 2905 2905 2905 2905 2905 2905 2905 2905 2930 2905 2905 2881 2881 2881 2881 2857 2881 2905 2881 2881
    0 0 0 0 0 0 0 0 0 0 0 0 0 0 0 0 0 0 0 0 0 0 0 0 0 0 0 0 0 0 0 0 0 0 0 0 0 0 0 0 0 0 0 0 0 0 0 0 0 0 0 0 0 0 0 0 0 0 0 0 0 0 0 0 0 0 0 0 0 0 0 0 0 0 0 0 0 0 0 0 0 0 0 0 0 0 0 0 0 0 0 0 0 0 0 0 0 0 0 0 0 0 0 0 0 0 0 0 0 0 0 0 0 0 0 0 0 0 0 0 0 0 0 2930 2955 2955 2955 2955 2955 2930 2930 2930 2930 2930 2930 2930 2930 2955 2955 2930 2930 2930 2930 2930 2930 2905 2930 2905 2930 2930 2905 2905 2930 2857 2857 2857 2857 2857 2857 2857 2857 2881 2881 2881 2905 2881 2881 2857 2857 2857 2857 2857 2857 2857 2881 2881 2881 2881 2881 2881 2881 2881 2881 2881 2881 2881 2881 2881 2881 2857 2857 2857 2857 2857 2857 2857 2881 2881 2881 2881 2881 2881 2881 2881 2857 2881 2857 2881 2881 2881 2881 2881 2881 2881 2881 2881 2881 2881 2881 2881 2881 2905 2930 2905 2905 2930 2930 2930 2930 2930 2881 2881 2905 2881 2881 2881 2905 2881 2905 2905 2905 2905 2905 2905 2905 2905 2905 2905 2905 2905 2905 2905 2905 2905 2905 2905 2905 2905 2905 2905 2905 2905 2905 2905 2905 2905 2905 2905 2905 2930 2930 2905 2930 2930 2033 2033 2033 2021 2009 2009 1998 1986 1986 1975 1975 1964 1964 1964 1964 1964 1952 1952 1952 1952 1952 1941 1941 1941 1941 1941 1931 1931 1931 1920 1920 1920 1909 1899 1899 1899 1899 1899 1899 1899 1899 1899 1899 1899 1899 1899 1888 1888 1888 1888 1888 1888 1888 1878 1888 1888 1888 1888 1888 1888 1878 1888 1888 1888 1888 1888 1888 1888 1888 1888 1888 1888 1878 1878 1878 1888 1888 1888 1888 1878 1888 1888 1888 1888 1888 1888 1888 1888 1888 1888 1888 1888 1888 1888 1899 1899 1899 1899 1899 1909 1909 1909 1909 1909 1920 1920 1920 1920 1920 1920 1931 1931 1931 1941 1931 1941 1952 1952 1964 1964 1964 1964 1964 1975 1975 1975 1975 1975 1986 1998 2009 2021 2021 2033 2033 2033 2021 0 0 0 0 0 2980 2930 2905 2881 2881 2881 2905 2881 2905 2905 2905 2905 2905 2905 2905 2905 2905 2930 2930 2930 2930 2930 2930 2930 2905 2905 2905 2905 2905 2905 2905 2905 2905 2930 2905 2930 2930 2905 2930 2905 2905 2905 2930 2905 2905 2905 2905 2930 2905 2905 2881 2905 2905 2930 2905 2905 2905 2930 2930 2930 2930 2905 2905 2905 2881 2881 2881 2881 2881 2881 2881 2905 2905 2905 2905 2905 2905 2905 2905 2930 2905 2905 2881 2905 2881 2881 2881 2881 2881 2881 2857 2857 2857 2857 2857 2857 2881 2881 2881 2881 2905 2905 2881 2857 2881 2881 2857 2881 2881 2881 2881 2905 2857 2857 2881 2905 2881 2881 2905 2881 2881 2857 2857 2857 2857 2857 2881 2857 2857 2857 2857 2881 2857 2857 2857 2857 2881 2881 2857 2881 2881 2881 2881 2881 2881 2857 2881 2881 2857 2857 2881 2881 2881 2881 2881 2857 2881 2881 2881 2881 2881 2905 2881 2905 2905 2905 2905 2905 2881 2881 2881 2905 2857 2930 2881 2881 2857 2881 2881 2881 2881 2881 2881 2881 2881 2905 2905 2905 2905 2905 2905 2905 2930 2930 2930 2930 2930 2930 2930 2930 2905 2905 2905 2905 2905 2905 2905 2930 2905 2905 2905 2905 2930 2905 2905 2905 2905 2881 2881 2881 2881 2905 2905 2881
    0 0 0 0 0 0 0 0 0 0 0 0 0 0 0 0 0 0 0 0 0 0 0 0 0 0 0 0 0 0 0 0 0 0 0 0 0 0 0 0 0 0 0 0 0 0 0 0 0 0 0 0 0 0 0 0 0 0 0 0 0 0 0 0 0 0 0 0 0 0 0 0 0 0 0 0 0 0 0 0 0 0 0 0 0 0 0 0 0 0 0 0 0 0 0 0 0 0 0 0 0 0 0 0 0 0 0 0 0 0 0 0 0 0 0 0 0 0 0 0 0 0 2980 2980 2980 2980 2980 2955 2955 2955 2930 2955 2930 2930 2930 2930 2955 2955 2955 2930 2930 2930 2930 2930 2930 2930 2930 2930 2930 2930 2905 2905 2905 2881 2857 2857 2857 2857 2857 2857 2881 2930 2905 2905 2905 2881 2881 2881 2857 2857 2857 2881 2857 2881 2881 2881 2881 2881 2881 2905 2881 2881 2930 2905 2881 2905 2881 2881 2881 2857 2857 2857 2881 2881 2881 2881 2881 2905 2881 2881 2881 2881 2881 2881 2857 2857 2857 2881 2881 2881 2881 2881 2881 2881 2881 2881 2881 2881 2881 2881 2905 2905 2930 2930 2930 2930 2930 2930 2930 2930 2905 2905 2905 2905 2905 2905 2905 2905 2905 2905 2905 2905 2905 2905 2905 2905 2905 2905 2905 2905 2905 2905 2905 2905 2905 2930 2905 2905 2905 2905 2905 2905 2905 2905 2905 2905 2930 2905 2930 2930 2930 2930 2930 2930 2930 2033 2033 2033 2009 2009 1998 1986 1986 1975 1975 1975 1964 1964 1964 1952 1964 1952 1952 1952 1952 1941 1952 1941 1941 1941 1941 1931 1931 1931 1920 1920 1920 1909 1909 1909 1909 1899 1899 1909 1899 1899 1899 1899 1899 1899 1888 1888 1888 1888 1888 1888 1888 1888 1888 1888 1888 1888 1888 1888 1888 1888 1888 1888 1888 1888 1888 1888 1888 1888 1888 1888 1878 1878 1878 1878 1878 1878 1888 1888 1888 1888 1888 1888 1888 1888 1888 1888 1888 1888 1888 1888 1888 1888 1899 1899 1899 1899 1909 1909 1909 1909 1909 1909 1920 1920 1920 1920 1920 1931 1931 1931 1931 1941 1941 1952 1952 1952 1964 1964 1964 1964 1964 1964 1975 1975 1975 1975 1986 1998 2009 2021 2021 2033 2033 2033 2033 2033 0 0 0 0 0 2930 2905 2905 2905 2905 2930 2930 2930 2930 2930 2930 2930 2930 2905 2930 2930 2955 2955 2955 2930 2955 2955 2930 2955 2930 2955 2905 2930 2905 2905 2930 2905 2930 2905 2930 2930 2930 2930 2905 2930 2930 2930 2930 2930 2930 2930 2930 2930 2905 2905 2905 2905 2930 2905 2930 2930 2930 2930 2930 2930 2955 2930 2930 2930 2930 2930 2930 2905 2881 2905 2905 2905 2905 2930 2955 2955 2955 2955 2955 2905 2905 2881 2881 2881 2881 2881 2881 2881 2881 2881 2905 2881 2857 2857 2881 2881 2881 2905 2881 2930 2905 2930 2881 2881 2905 2905 2930 2930 2930 2905 2905 2881 2881 2881 2881 2905 2881 2905 2881 2881 2881 2881 2881 2881 2881 2881 2881 2881 2857 2881 2881 2881 2881 2857 2881 2930 2930 2881 2881 2881 2881 2881 2881 2881 2881 2881 2881 2881 2881 2905 2905 2905 2905 2930 2881 2881 2881 2881 2881 2905 2905 2881 2905 2905 2905 2905 2905 2881 2881 2905 2905 2930 2955 2905 2905 2905 2905 2905 2905 2905 2881 2881 2881 2905 2905 2905 2905 2905 2905 2905 2905 2905 2930 2930 2930 2930 2930 2930 2930 2905 2905 2905 2930 2930 2930 2930 2905 2905 2905 2905 2905 2930 2930 2930 2905 2905 2905 2905 2881 2881 2905 2905 2905
    0 0 0 0 0 0 0 0 0 0 0 0 0 0 0 0 0 0 0 0 0 0 0 0 0 0 0 0 0 0 0 0 0 0 0 0 0 0 0 0 0 0 0 0 0 0 0 0 0 0 0 0 0 0 0 0 0 0 0 0 0 0 0 0 0 0 0 0 0 0 0 0 0 0 0 0 0 0 0 0 0 0 0 0 0 0 0 0 0 0 0 0 0 0 0 0 0 0 0 0 0 0 0 0 0 0 0 0 0 0 0 0 0 0 0 0 0 0 0 0 0 0 2980 2980 2980 2980 2980 2955 2955 2955 2955 2955 2930 2930 2930 2955 2955 2955 2955 2930 2930 2930 2930 2930 2930 2930 2930 2930 2930 2930 2930 2930 2930 2905 2881 2881 2857 2881 2881 2881 2881 2930 2930 2905 2930 2905 2905 2881 2881 2881 2881 2881 2881 2881 2881 2881 2905 2905 2881 2905 2905 2905 2930 2905 2881 2905 2905 2881 2881 2881 2881 2881 2881 2881 2881 2881 2881 2930 2905 2881 2905 2905 2881 2881 2881 2881 2881 2881 2881 2881 2905 2905 2881 2881 2881 2905 2905 2905 2881 2881 2905 2930 2930 2930 2930 2930 2930 2930 2930 2930 2905 2905 2905 2905 2905 2905 2905 2905 2905 2905 2905 2905 2905 2905 2905 2905 2905 2905 2905 2930 2930 2930 2905 2905 2930 2930 2930 2905 2930 2905 2930 2930 2930 2905 2930 2930 2930 2930 2930 2930 2930 2930 2905 2905 2905 2033 2033 2033 2021 2009 1998 1986 1986 1986 1975 1975 1975 1975 1975 1964 1964 1964 1952 1964 1952 1941 1952 1941 1941 1941 1941 1941 1931 1931 1931 1931 1931 1920 1909 1909 1909 1909 1899 1909 1909 1909 1909 1909 1909 1899 1888 1888 1899 1888 1888 1888 1888 1888 1888 1888 1888 1888 1888 1888 1888 1888 1888 1888 1888 1888 1888 1888 1888 1888 1878 1878 1878 1878 1878 1878 1878 1878 1888 1878 1888 1888 1888 1888 1888 1888 1888 1888 1888 1888 1888 1888 1888 1888 1899 1899 1899 1899 1909 1909 1909 1909 1909 1920 1920 1920 1920 1931 1931 1931 1931 1931 1941 1941 1941 1952 1952 1952 1964 1964 1964 1964 1964 1964 1975 1975 1975 1975 1975 1998 2009 2021 2021 2033 2033 2045 2033 2033 0 0 0 0 0 2930 2905 2905 2930 2930 2930 2930 2930 2930 2955 2930 2930 2930 2930 2930 2955 2955 2955 2955 2955 2955 2955 2955 2930 2930 2930 2930 2930 2930 2930 2930 2930 2930 2930 2930 2930 2930 2930 2930 2930 2930 2955 2930 2930 2930 2930 2930 2930 2930 2905 2905 2905 2930 2930 2930 2930 2930 2930 2930 2930 2930 2955 2955 2955 2930 2955 2955 2955 2905 2905 2955 2955 2930 2930 2955 2955 2955 2955 2955 2955 2930 2905 2905 2881 2905 2905 2905 2905 2905 2905 2905 2905 2905 2905 2905 2905 2905 2905 2905 2930 2930 2930 2930 2930 2930 2930 2930 2930 2930 2930 2930 2930 2881 2905 2905 2905 2905 2905 2905 2905 2930 2881 2881 2881 2930 2905 2881 2881 2881 2881 2881 2881 2881 2881 2881 2905 2905 2881 2905 2905 2905 2905 2905 2905 2905 2905 2905 2905 2905 2930 2930 2905 2905 2930 2905 2905 2905 2905 2905 2905 2930 2905 2905 2905 2930 2930 2905 2905 2905 2930 2930 2930 2955 2905 2905 2905 2905 2905 2905 2905 2881 2881 2881 2881 2905 2905 2905 2881 2905 2905 2905 2905 2905 2905 2905 2930 2905 2905 2930 2930 2930 2930 2930 2930 2930 2930 2905 2905 2930 2930 2930 2930 2930 2930 2905 2905 2905 2905 2905 2881 2905 2905 2905
    0 0 0 0 0 0 0 0 0 0 0 0 0 0 0 0 0 0 0 0 0 0 0 0 0 0 0 0 0 0 0 0 0 0 0 0 0 0 0 0 0 0 0 0 0 0 0 0 0 0 0 0 0 0 0 0 0 0 0 0 0 0 0 0 0 0 0 0 0 0 0 0 0 0 0 0 0 0 0 0 0 0 0 0 0 0 0 0 0 0 0 0 0 0 0 0 0 0 0 0 0 0 0 0 0 0 0 0 0 0 0 0 0 0 0 0 0 0 0 0 0 0 3006 2980 2980 2980 2980 2980 2955 2955 2955 2955 2955 2955 2955 2955 2955 2955 2955 2930 2930 2955 2955 2930 2930 2955 2930 2930 2930 2930 2930 2930 2930 2930 2930 2930 2930 2930 2930 2930 2930 2930 2930 2930 2930 2930 2905 2905 2905 2881 2905 2881 2881 2905 2905 2881 2905 2905 2905 2905 2905 2905 2905 2905 2881 2905 2905 2905 2905 2881 2881 2881 2905 2905 2905 2905 2905 2905 2905 2905 2930 2930 2905 2881 2881 2881 2881 2881 2905 2905 2905 2905 2905 2881 2881 2905 2905 2905 2881 2905 2905 2930 2930 2930 2930 2930 2930 2930 2930 2930 2905 2905 2905 2905 2930 2930 2930 2930 2930 2930 2930 2905 2905 2905 2905 2930 2905 2930 2905 2930 2930 2930 2930 2930 2930 2930 2930 2930 2930 2930 2930 2930 2930 2930 2930 2930 2930 2930 2930 2930 2930 2930 2905 2905 2045 2045 2033 2033 2021 2009 1998 1986 1986 1975 1975 1975 1975 1975 1975 1964 1964 1964 1952 1964 1952 1941 1952 1941 1941 1941 1941 1941 1931 1931 1931 1931 1931 1931 1920 1909 1909 1909 1909 1909 1909 1909 1909 1909 1909 1899 1888 1888 1888 1888 1888 1888 1888 1888 1888 1888 1888 1888 1888 1888 1888 1888 1888 1888 1888 1888 1888 1888 1888 1888 1878 1888 1878 1888 1878 1878 1888 1878 1878 1888 1888 1888 1888 1888 1888 1888 1888 1888 1888 1899 1888 1888 1888 1899 1899 1899 1899 1899 1909 1909 1909 1909 1920 1920 1920 1920 1920 1931 1920 1931 1931 1931 1931 1941 1941 1941 1952 1952 1964 1964 1964 1964 1964 1964 1975 1975 1975 1975 1986 2009 2009 2021 2021 2033 2045 2045 2033 2033 0 0 0 0 0 0 2905 2930 2930 2930 2930 2955 2955 2955 2955 2955 2955 2955 2955 2955 2955 2955 2955 2955 2955 2955 2955 2955 2955 2955 2955 2955 2955 2930 2930 2930 2930 2930 2930 2930 2930 2930 2930 2930 2955 2955 2955 2955 2955 2930 2930 2955 2930 2930 2930 2930 2930 2955 2930 2930 2930 2955 2930 2930 2930 2955 2955 2955 2930 2930 2955 2955 2955 2955 2955 2955 2955 2955 2980 2980 2955 2955 2955 2955 2955 2955 2955 2905 2881 2905 2905 2905 2881 2905 2905 2905 2905 2881 2905 2905 2905 2930 2905 2905 2905 2930 2930 2930 2930 2930 2930 2930 2930 2930 2930 2930 2955 2930 2905 2905 2930 2930 2930 2905 2905 2930 2881 2881 2881 2930 2881 2905 2905 2881 2905 2881 2881 2881 2881 2881 2881 2955 2905 2955 2905 2905 2955 2955 2905 2905 2905 2930 2930 2930 2930 2930 2930 2930 2930 2905 2905 2905 2905 2905 2930 2930 2905 2905 2930 2930 2930 2930 2905 2905 2930 2930 2930 2955 2905 2905 2905 2905 2905 2905 2905 2905 2905 2905 2905 2905 2905 2905 2905 2905 2905 2905 2905 2905 2905 2905 2905 2905 2905 2905 2905 2905 2930 2930 2930 2930 2930 2905 2905 2930 2905 2930 2930 2930 2930 2905 2930 2905 2905 2905 2905 2905 2930 2930
    0 0 0 0 0 0 0 0 0 0 0 0 0 0 0 0 0 0 0 0 0 0 0 0 0 0 0 0 0 0 0 0 0 0 0 0 0 0 0 0 0 0 0 0 0 0 0 0 0 0 0 0 0 0 0 0 0 0 0 0 0 0 0 0 0 0 0 0 0 0 0 0 0 0 0 0 0 0 0 0 0 0 0 0 0 0 0 0 0 0 0 0 0 0 0 0 0 0 0 0 0 0 0 0 0 0 0 0 0 0 0 0 0 0 0 0 0 0 0 0 0 0 0 3006 2980 2980 2980 2980 2980 2955 2955 2955 2955 2955 2955 2955 2955 2955 2980 2955 2955 2955 2955 2955 2955 2955 2955 2955 2955 2930 2930 2930 2930 2930 2930 2930 2930 2930 2930 2930 2930 2930 2930 2930 2930 2930 2905 2905 2905 2905 2930 2905 2905 2905 2905 2905 2905 2905 2905 2905 2905 2905 2930 2905 2905 2905 2905 2905 2905 2905 2905 2905 2905 2905 2905 2905 2930 2930 2930 2930 2930 2930 2905 2905 2881 2905 2905 2905 2905 2930 2930 2930 2905 2905 2905 2905 2905 2905 2905 2905 2905 2930 2930 2930 2930 2930 2930 2930 2930 2930 2905 2905 2930 2930 2930 2930 2930 2930 2930 2930 2930 2905 2905 2905 2905 2930 2905 2930 2930 2930 2930 2930 2930 2930 2930 2930 2930 2930 2930 2930 2930 2930 2930 2930 2930 2930 2930 2930 2955 2930 2955 2930 2930 2905 2069 2045 2033 2033 2021 2009 2009 1998 1986 1975 1975 1975 1975 1975 1975 1964 1964 1964 1952 1964 1952 1941 1941 1941 1941 1941 1941 1941 1931 1941 1931 1931 1931 1931 1920 1920 1909 1909 1909 1909 1909 1909 1909 1909 1909 1899 1888 1888 1899 1888 1888 1888 1888 1899 1899 1888 1899 1888 1888 1888 1888 1888 1888 1888 1888 1888 1888 1888 1888 1888 1878 1888 1888 1888 1888 1878 1888 1878 1878 1888 1888 1888 1888 1888 1888 1888 1888 1888 1888 1899 1888 1888 1899 1899 1899 1909 1899 1899 1909 1909 1909 1909 1909 1920 1920 1920 1920 1931 1931 1931 1931 1931 1931 1931 1941 1941 1952 1952 1964 1964 1964 1964 1975 1975 1975 1975 1986 1986 1986 2009 2009 2021 2033 2033 2045 2057 2045 2045 0 0 0 0 0 2905 2905 2930 2930 2930 2955 2955 2955 2955 2955 2955 2955 2955 2955 2955 2955 2955 2955 2955 2955 2955 2980 2955 2955 2955 2955 2955 2955 2955 2930 2955 2930 2955 2930 2955 2930 2930 2955 2955 2955 2955 2955 2955 2955 2955 2955 2955 2955 2930 2930 2930 2930 2955 2930 2930 2955 2955 2955 2930 2955 2955 2955 2955 2955 2955 2955 2955 2955 2930 2930 2955 2955 2955 2955 2980 2955 2955 2955 2955 2955 2955 2955 2955 2930 2905 2905 2905 2905 2905 2905 2930 2905 2905 2905 2905 2905 2905 2905 2881 2930 2930 2930 2930 2930 2930 2930 2955 2955 2955 2955 2930 2955 2930 2930 2930 2930 2905 2905 2905 2905 2930 2905 2905 2905 2905 2905 2905 2905 2905 2905 2905 2905 2881 2881 2955 2955 2955 2955 2955 2930 2930 2930 2930 2930 2930 2930 2930 2930 2930 2930 2930 2930 2905 2930 2905 2905 2905 2905 2930 2930 2930 2930 2905 2930 2930 2930 2930 2905 2930 2930 2930 2930 2930 2905 2905 2905 2905 2905 2905 2905 2905 2905 2905 2905 2905 2905 2905 2905 2905 2905 2905 2905 2905 2905 2905 2905 2905 2905 2905 2905 2905 2905 2905 2905 2955 2955 2955 2955 2930 2930 2955 2930 2930 2930 2905 2930 2930 2905 2905 2881 2905 2930 2930
    0 0 0 0 0 0 0 0 0 0 0 0 0 0 0 0 0 0 0 0 0 0 0 0 0 0 0 0 0 0 0 0 0 0 0 0 0 0 0 0 0 0 0 0 0 0 0 0 0 0 0 0 0 0 0 0 0 0 0 0 0 0 0 0 0 0 0 0 0 0 0 0 0 0 0 0 0 0 0 0 0 0 0 0 0 0 0 0 0 0 0 0 0 0 0 0 0 0 0 0 0 0 0 0 0 0 0 0 0 0 0 0 0 0 0 0 0 0 0 0 0 0 0 3006 2980 3006 3006 2980 2980 2955 2955 2955 2955 2955 2955 2980 2980 2980 2980 2955 2955 2955 2955 2955 2955 2955 2955 2955 2955 2930 2930 2930 2930 2930 2930 2930 2930 2930 2905 2905 2930 2930 2930 2930 2930 2930 2905 2905 2905 2905 2905 2930 2905 2930 2930 2930 2930 2905 2905 2930 2930 2930 2930 2905 2930 2905 2905 2905 2905 2905 2905 2905 2905 2905 2930 2930 2930 2930 2930 2930 2905 2930 2905 2905 2905 2905 2905 2905 2930 2930 2930 2930 2930 2930 2930 2930 2930 2905 2905 2905 2930 2930 2955 2955 2930 2930 2930 2955 2930 2930 2930 2930 2930 2930 2930 2930 2955 2930 2930 2930 2930 2930 2930 2930 2930 2930 2930 2930 2930 2930 2930 2930 2930 2930 2930 2930 2930 2930 2930 2930 2930 2930 2930 2930 2930 2955 2955 2955 2955 2955 2955 2930 2930 2069 2069 2045 2045 2033 2021 2021 2009 1998 1986 1986 1986 1975 1975 1975 1975 1975 1975 1964 1964 1964 1964 1952 1952 1952 1941 1941 1941 1941 1931 1941 1931 1931 1931 1931 1931 1931 1920 1909 1920 1909 1909 1909 1909 1909 1909 1909 1899 1899 1899 1899 1899 1888 1888 1899 1899 1899 1899 1888 1888 1888 1888 1888 1888 1888 1888 1888 1888 1888 1888 1888 1878 1888 1888 1888 1878 1888 1888 1878 1888 1888 1888 1888 1888 1888 1888 1888 1888 1888 1899 1899 1888 1899 1888 1899 1899 1899 1899 1899 1909 1909 1909 1909 1920 1920 1920 1931 1931 1931 1931 1931 1931 1931 1931 1941 1941 1952 1952 1952 1964 1964 1964 1964 1975 1975 1975 1986 1986 1998 1998 2009 2009 2021 2021 2033 2033 2045 2033 2045 0 0 0 0 0 2930 2930 2930 2930 2955 2955 2955 2955 2955 2955 2980 2955 2955 2980 2980 2980 2980 2980 2980 2955 2980 2980 2955 2955 2955 2955 2955 2955 2955 2955 2955 2955 2955 2955 2955 2955 2955 2955 2955 2955 2955 2955 2955 2955 2955 2955 2955 2955 2955 2930 2955 2955 2955 2955 2955 2955 2955 2930 2930 2930 2955 2955 2955 2980 2955 2955 2955 2955 2930 2955 2955 2955 2930 2955 2980 2980 2980 2980 2980 2955 2955 2980 2980 2905 2905 2905 2905 2905 2905 2930 2930 2905 2905 2905 2905 2905 2905 2905 2905 2905 2930 2930 2930 2930 2930 2930 2955 2955 2930 2955 2955 2955 2955 2930 2930 2930 2930 2930 2930 2905 2905 2905 2905 2905 2905 2905 2930 2930 2905 2930 2905 2930 2955 2955 2980 2955 2980 2980 2955 2930 2930 2930 2930 2930 2930 2930 2955 2955 2955 2955 2930 2930 2930 2930 2930 2930 2930 2930 2930 2930 2930 2930 2930 2930 2930 2930 2930 2930 2930 2930 2930 2955 2955 2905 2905 2905 2905 2930 2930 2905 2905 2905 2930 2930 2905 2905 2905 2905 2930 2930 2905 2905 2905 2905 2905 2905 2905 2905 2905 2905 2905 2905 2930 2930 2955 2955 2955 2980 2980 2980 2955 2930 2930 2930 2905 2930 2930 2905 2905 2905 2905 2930 2930
    0 0 0 0 0 0 0 0 0 0 0 0 0 0 0 0 0 0 0 0 0 0 0 0 0 0 0 0 0 0 0 0 0 0 0 0 0 0 0 0 0 0 0 0 0 0 0 0 0 0 0 0 0 0 0 0 0 0 0 0 0 0 0 0 0 0 0 0 0 0 0 0 0 0 0 0 0 0 0 0 0 0 0 0 0 0 0 0 0 0 0 0 0 0 0 0 0 0 0 0 0 0 0 0 0 0 0 0 0 0 0 0 0 0 0 0 0 0 0 0 0 0 0 2980 2980 2980 3006 2980 2980 2980 2980 2980 2980 2980 2980 2980 2980 2980 2980 2955 2955 2955 2955 2955 2955 2955 2955 2955 2955 2955 2955 2955 2955 2930 2930 2930 2930 2930 2930 2905 2905 2930 2955 2930 2930 2930 2930 2930 2930 2930 2930 2930 2930 2930 2930 2905 2930 2930 2930 2930 2930 2930 2930 2930 2930 2930 2930 2930 2905 2905 2905 2905 2930 2930 2930 2930 2930 2930 2930 2930 2930 2930 2930 2930 2930 2930 2930 2930 2930 2930 2930 2930 2930 2930 2930 2930 2930 2955 2930 2930 2930 2955 2955 2955 2955 2955 2955 2955 2955 2955 2930 2930 2930 2930 2930 2930 2955 2930 2930 2930 2930 2930 2930 2930 2930 2930 2930 2930 2930 2930 2930 2930 2930 2930 2930 2930 2930 2930 2930 2930 2930 2930 2930 2930 2955 2930 2955 2955 2955 2955 2955 2955 2955 2082 2069 2057 2045 2033 2021 2021 2021 2009 1986 1986 1986 1986 1986 1986 1986 1975 1975 1975 1964 1964 1964 1952 1952 1952 1941 1941 1941 1941 1941 1941 1931 1931 1931 1931 1931 1931 1920 1920 1920 1909 1909 1909 1909 1909 1909 1909 1899 1888 1888 1888 1899 1888 1888 1899 1899 1899 1899 1888 1888 1899 1888 1888 1888 1888 1888 1888 1888 1888 1888 1888 1888 1888 1888 1888 1888 1888 1888 1888 1888 1888 1888 1888 1899 1888 1888 1899 1899 1888 1899 1899 1888 1899 1888 1899 1899 1909 1899 1909 1909 1909 1920 1909 1909 1920 1920 1931 1931 1931 1931 1931 1931 1931 1931 1941 1941 1952 1952 1964 1964 1964 1964 1975 1975 1975 1975 1986 1986 1998 1998 2009 2021 2021 2033 2033 2045 2057 2045 2033 0 0 0 0 2930 2930 2930 2930 2955 2955 2955 2955 2955 2955 2955 2980 2980 2980 2980 2980 2980 2980 2980 2980 2980 2980 2980 2980 2955 2955 2955 2955 2955 2955 2955 2955 2955 2955 2955 2955 2955 2955 2955 2955 2955 2955 2955 2955 2955 2955 2955 2955 2955 2955 2955 2955 2955 2955 2955 2955 2955 2955 2955 2930 2930 2955 2955 2955 2955 2955 2955 2955 2955 2955 2955 2955 2955 2930 2955 2980 2955 2980 2980 2980 2955 2955 2955 2955 2930 2930 2930 2930 2930 2930 2930 2930 2930 2930 2930 2905 2930 2930 2905 2905 2905 2905 2905 2930 2930 2930 2930 2955 2955 2955 2955 2955 2955 2955 2955 2930 2930 2930 2930 2930 2930 2905 2905 2930 2930 2930 2930 2930 2930 2930 2930 2930 2930 2930 2905 2930 2930 2930 2930 2930 2930 2930 2930 2955 2955 2955 2955 2955 2955 2955 2955 2930 2930 2930 2955 2955 2930 2955 2930 2930 2930 2930 2930 2930 2930 2930 2930 2930 2930 2930 2930 2930 2955 2955 2930 2905 2905 2905 2930 2930 2905 2905 2905 2930 2930 2930 2930 2930 2930 2930 2930 2905 2905 2905 2905 2905 2905 2905 2881 2905 2905 2930 2930 2930 2955 2955 2955 2955 2980 2980 2955 2955 2955 2955 2930 2930 2930 2955 2930 2930 2930 2930 2930 2955
    0 0 0 0 0 0 0 0 0 0 0 0 0 0 0 0 0 0 0 0 0 0 0 0 0 0 0 0 0 0 0 0 0 0 0 0 0 0 0 0 0 0 0 0 0 0 0 0 0 0 0 0 0 0 0 0 0 0 0 0 0 0 0 0 0 0 0 0 0 0 0 0 0 0 0 0 0 0 0 0 0 0 0 0 0 0 0 0 0 0 0 0 0 0 0 0 0 0 0 0 0 0 0 0 0 0 0 0 0 0 0 0 0 0 0 0 0 0 0 0 0 0 0 2980 2980 2980 3006 3006 3006 2980 2980 2980 3006 2980 2980 2980 2980 3006 3006 2955 2955 2955 2955 2955 2955 2980 2955 2955 2955 2955 2955 2955 2955 2930 2955 2930 2930 2930 2955 2930 2955 2955 2955 2955 2930 2930 2930 2930 2930 2930 2930 2930 2930 2930 2930 2930 2930 2930 2930 2930 2930 2930 2930 2930 2930 2930 2930 2930 2930 2930 2930 2930 2930 2930 2930 2930 2930 2930 2955 2955 2955 2955 2955 2930 2955 2955 2955 2930 2955 2930 2930 2955 2930 2930 2930 2930 2930 2930 2930 2930 2955 2955 2955 2955 2955 2955 2955 2955 2955 2930 2905 2930 2930 2930 2930 2930 2955 2955 2955 2955 2930 2930 2930 2930 2930 2930 2930 2930 2930 2955 2955 2930 2955 2955 2930 2955 2955 2930 2930 2930 2930 2930 2955 2955 2955 2955 2980 2980 2980 2980 2980 2980 2980 2082 2069 2057 2045 2033 2021 2021 2021 2009 1998 1998 1986 1986 1986 1986 1986 1975 1975 1975 1964 1964 1964 1964 1952 1952 1952 1941 1941 1941 1931 1941 1931 1931 1931 1931 1931 1931 1920 1920 1920 1909 1909 1909 1909 1909 1909 1909 1899 1888 1888 1888 1899 1888 1888 1899 1899 1899 1899 1899 1899 1899 1888 1888 1899 1888 1888 1888 1888 1888 1888 1888 1878 1888 1878 1878 1878 1888 1888 1888 1888 1888 1888 1888 1899 1888 1888 1888 1888 1888 1888 1899 1888 1899 1888 1899 1909 1909 1909 1909 1909 1909 1920 1920 1920 1920 1920 1931 1931 1931 1931 1931 1931 1931 1941 1941 1941 1952 1964 1964 1964 1964 1975 1975 1975 1975 1975 1986 1998 1998 1998 2009 2021 2021 2033 2033 2045 2057 2033 0 0 0 0 0 2930 2930 2930 2955 2955 2955 2955 2980 2980 2980 2980 2980 2980 2980 2980 2980 2980 2980 2980 2980 2980 2980 2980 2980 2980 2955 2955 2955 2955 2955 2955 2955 2955 2955 2955 2955 2955 2955 2955 2955 2955 2955 2955 2955 2955 2955 2955 2955 2955 2955 2955 2955 2955 2955 2955 2955 2955 2955 2955 2930 2930 2955 2955 2955 2980 2955 2955 2980 2955 2955 2955 2955 2955 2955 2955 2955 2955 2955 3006 2955 2955 2955 2955 2955 2930 2930 2930 2930 2930 2930 2930 2930 2930 2930 2930 2930 2930 2930 2905 2905 2905 2905 2930 2930 2930 2930 2930 2955 2955 2955 2955 2955 2955 2955 2955 2955 2955 2955 2930 2930 2930 2930 2930 2930 2930 2930 2930 2930 2930 2930 2955 2930 2930 2930 2930 2930 2930 2930 2930 2930 2930 2930 2955 2955 2955 2955 2955 2955 2955 2955 2955 2930 2930 2930 2955 2955 2955 2955 2955 2955 2955 2930 2930 2930 2930 2930 2930 2930 2930 2955 2955 2955 2955 2955 2930 2905 2905 2905 2930 2930 2905 2905 2930 2930 2930 2930 2930 2930 2930 2930 2930 2930 2905 2905 2905 2905 2905 2905 2881 2905 2905 2930 2930 2930 2955 2955 2955 2955 2955 2980 2955 2955 2955 2955 2955 2955 2955 2930 2955 2955 2930 2955 2930 2930
    0 0 0 0 0 0 0 0 0 0 0 0 0 0 0 0 0 0 0 0 0 0 0 0 0 0 0 0 0 0 0 0 0 0 0 0 0 0 0 0 0 0 0 0 0 0 0 0 0 0 0 0 0 0 0 0 0 0 0 0 0 0 0 0 0 0 0 0 0 0 0 0 0 0 0 0 0 0 0 0 0 0 0 0 0 0 0 0 0 0 0 0 0 0 0 0 0 0 0 0 0 0 0 0 0 0 0 0 0 0 0 0 0 0 0 0 0 0 0 0 0 0 0 3006 3006 3006 3006 3006 3006 2980 2980 3006 3006 2980 2980 3006 3006 3006 3006 2955 2955 2955 2955 2980 2980 2980 2980 2980 2980 2955 2955 2955 2955 2955 2955 2955 2955 2955 2955 2930 2930 2955 2930 2930 2955 2930 2930 2955 2955 2930 2930 2930 2930 2930 2955 2930 2930 2930 2930 2930 2955 2955 2930 2955 2955 2955 2930 2930 2930 2930 2930 2930 2930 2930 2930 2930 2955 2955 2955 2955 2955 2955 2955 2955 2955 2955 2955 2955 2955 2930 2955 2955 2955 2955 2955 2955 2955 2955 2955 2955 2955 2955 2955 2955 2955 2955 2955 2955 2955 2955 2930 2930 2930 2930 2930 2930 2955 2955 2955 2955 2955 2930 2930 2930 2930 2930 2930 2930 2955 2955 2955 2955 2955 2955 2955 2955 2955 2955 2930 2930 2930 2930 2955 2955 2955 2955 2980 2980 2980 2980 2980 2980 2980 2082 2082 2069 2045 2033 2033 2021 2021 2009 1998 1998 1998 1998 1986 1986 1986 1975 1975 1975 1964 1964 1964 1964 1952 1952 1952 1941 1941 1941 1931 1941 1931 1931 1931 1931 1931 1931 1920 1920 1920 1920 1909 1909 1909 1909 1909 1909 1899 1899 1899 1899 1899 1888 1888 1899 1899 1899 1899 1899 1899 1899 1888 1888 1899 1888 1888 1888 1888 1888 1888 1888 1888 1888 1888 1888 1888 1888 1888 1888 1888 1888 1888 1888 1899 1888 1888 1888 1888 1888 1899 1899 1888 1899 1888 1899 1909 1909 1899 1909 1909 1909 1909 1920 1920 1920 1920 1920 1931 1931 1931 1931 1931 1931 1941 1941 1952 1952 1952 1952 1964 1964 1975 1975 1975 1986 1986 1998 1998 2009 2009 2009 2021 2021 2033 2033 2045 2057 2045 0 0 0 0 0 2930 2930 2955 2955 2955 2955 2955 2955 2980 2980 2980 2980 2980 2980 2980 2980 2980 2980 2980 2980 2980 2980 2980 2980 2980 2980 2980 2980 2955 2955 2955 2955 2955 2955 2955 2955 2955 2955 2980 2980 2955 2955 2955 2955 2955 2980 2955 2955 2955 2955 2980 2980 2980 2955 2955 2955 2955 2955 2955 2955 2955 2955 2980 2980 2980 2980 2980 2980 2980 2980 2980 2980 2955 2955 2955 2955 2980 2980 2980 2980 2955 2955 2955 2955 2930 2930 2930 2930 2930 2930 2930 2930 2930 2930 2930 2930 2930 2955 2955 2930 2930 2930 2930 2930 2955 2930 2930 2930 2955 2955 2955 2955 2955 2955 2955 2955 2955 2955 2955 2955 2930 2930 2930 2930 2930 2930 2930 2955 2955 2955 2955 2955 2955 2955 2955 2955 2955 2955 2955 2955 2955 2955 2955 2955 2980 2980 2955 2955 2955 2955 2930 2930 2930 2930 2955 2955 2955 2955 2955 2955 2955 2955 2930 2930 2930 2930 2930 2955 2955 2955 2955 2955 2955 2955 2930 2905 2905 2930 2930 2930 2930 2930 2930 2930 2930 2930 2930 2930 2930 2930 2930 2930 2905 2905 2905 2905 2905 2905 2905 2905 2930 2930 2930 2930 2930 2955 2980 2955 2980 2980 2955 2955 2980 2980 2955 2955 2955 2980 2980 2955 2930 2955 2930 2930
    0 0 0 0 0 0 0 0 0 0 0 0 0 0 0 0 0 0 0 0 0 0 0 0 0 0 0 0 0 0 0 0 0 0 0 0 0 0 0 0 0 0 0 0 0 0 0 0 0 0 0 0 0 0 0 0 0 0 0 0 0 0 0 0 0 0 0 0 0 0 0 0 0 0 0 0 0 0 0 0 0 0 0 0 0 0 0 0 0 0 0 0 0 0 0 0 0 0 0 0 0 0 0 0 0 0 0 0 0 0 0 0 0 0 0 0 0 0 0 0 0 0 0 0 2980 2980 3006 3006 3006 3006 3006 3006 3006 3006 3006 3006 3006 3033 3033 2980 2980 2980 2980 2980 2980 2980 2980 2980 2980 2980 2980 2955 2955 2955 2955 2955 2955 2955 2955 2955 2955 2955 2955 2955 2955 2955 2955 2955 2955 2955 2955 2955 2930 2955 2955 2955 2930 2930 2930 2930 2955 2955 2955 2955 2955 2955 2955 2955 2930 2930 2930 2930 2930 2930 2930 2930 2955 2955 2955 2955 2955 2980 2980 2980 2980 2955 2955 2955 2955 2955 2955 2955 2955 2955 2955 2955 2955 2955 2955 2955 2955 2955 2955 2955 2955 2955 2955 2955 2955 2955 2930 2930 2930 2930 2955 2955 2955 2955 2955 2980 2955 2955 2955 2955 2930 2930 2955 2955 2955 2955 2955 2955 2955 2955 2955 2955 2955 2955 2955 2955 2955 2955 2955 2955 2955 2955 2980 2980 2980 2980 2980 2980 2980 2082 2082 2069 2057 2045 2033 2033 2021 2021 2009 1998 1998 1998 1986 1986 1986 1975 1975 1975 1964 1964 1964 1952 1952 1952 1952 1941 1941 1941 1941 1931 1931 1931 1931 1931 1931 1931 1920 1920 1920 1920 1920 1920 1909 1909 1920 1909 1899 1899 1899 1899 1899 1899 1899 1899 1899 1899 1899 1899 1899 1909 1888 1888 1899 1899 1899 1888 1888 1888 1899 1888 1888 1888 1888 1888 1899 1888 1888 1888 1888 1888 1888 1888 1899 1888 1888 1888 1888 1899 1899 1899 1888 1899 1899 1899 1899 1909 1909 1909 1909 1909 1909 1920 1920 1920 1920 1920 1920 1920 1931 1931 1931 1931 1931 1941 1952 1952 1964 1964 1964 1964 1975 1975 1986 1986 1998 1998 2009 2009 2009 2021 2021 2033 2033 2045 2057 2057 2045 0 0 0 0 2905 2955 2955 2955 2955 2955 2955 2955 2980 2980 2980 2980 2980 2980 2980 2980 2980 2980 2980 2980 2980 2980 2980 2980 2980 2980 2980 2980 2980 2955 2980 2955 2955 2980 2980 2980 2980 2980 2980 2980 2980 2980 2955 2955 2980 2980 2980 2980 2980 2980 2980 2980 2980 2980 2980 2980 2980 2980 2980 2980 2955 2955 2980 2980 2980 3006 3006 2980 2980 2980 2980 2980 2980 2980 2980 2980 2980 2980 2980 2980 2980 2980 2980 2980 2980 2955 2930 2930 2930 2930 2930 2930 2930 2930 2930 2930 2930 2930 2930 2930 2930 2930 2930 2930 2930 2930 2930 2930 2930 2955 2955 2955 2955 2955 2980 2980 2955 2955 2955 2955 2955 2955 2930 2930 2955 2955 2955 2955 2955 2955 2955 2955 2955 2955 2955 2955 2955 2955 2955 2955 2955 2955 2955 2955 2955 2980 2955 2955 2955 2930 2930 2930 2930 2930 2930 2955 2955 2955 2980 2980 2980 2955 2955 2955 2955 2930 2930 2955 2955 2955 2955 2955 2955 2955 2955 2930 2905 2905 2930 2930 2930 2930 2930 2930 2955 2955 2955 2955 2955 2955 2955 2955 2930 2930 2930 2905 2930 2905 2905 2905 2930 2930 2930 2930 2930 2955 2980 2980 2980 2980 2980 2980 2980 3006 2980 2980 3006 2980 2980 2980 2980 2955 2980 2955 2930
    0 0 0 0 0 0 0 0 0 0 0 0 0 0 0 0 0 0 0 0 0 0 0 0 0 0 0 0 0 0 0 0 0 0 0 0 0 0 0 0 0 0 0 0 0 0 0 0 0 0 0 0 0 0 0 0 0 0 0 0 0 0 0 0 0 0 0 0 0 0 0 0 0 0 0 0 0 0 0 0 0 0 0 0 0 0 0 0 0 0 0 0 0 0 0 0 0 0 0 0 0 0 0 0 0 0 0 0 0 0 0 0 0 0 0 0 0 0 0 0 0 0 0 2980 2980 3033 3033 3033 3006 3006 3006 3006 3033 3006 3006 3033 3033 3033 3033 2980 2980 2980 2980 2980 2980 2980 2980 2980 2980 2980 2955 2955 2955 2955 2955 2955 2955 2955 2955 2955 2955 2955 2955 2955 2955 2955 2955 2955 2955 2955 2955 2955 2955 2955 2955 2955 2955 2930 2955 2955 2955 2955 2955 2955 2955 2955 2955 2955 2930 2930 2930 2930 2955 2955 2955 2955 2955 2955 2955 2955 2955 2980 2980 2980 2980 2955 2955 2955 2955 2955 2955 2955 2955 2955 2955 2955 2955 2955 2955 2955 2955 2955 2955 2955 2955 2955 2955 2955 2955 2955 2930 2930 2955 2955 2955 2955 2980 2980 2980 2980 2955 2955 2955 2955 2930 2930 2955 2955 2955 2955 2955 2955 2955 2955 2955 2955 2955 2955 2955 2955 2955 2955 2955 2980 2980 2980 2980 3006 2980 3006 2980 2980 2980 3006 2082 2082 2069 2057 2045 2033 2021 2021 2009 2009 1998 1998 1986 1986 1986 1975 1975 1975 1964 1964 1964 1952 1952 1952 1952 1941 1941 1941 1941 1931 1931 1931 1931 1931 1931 1931 1931 1920 1920 1920 1920 1920 1909 1909 1920 1909 1899 1899 1899 1899 1909 1899 1899 1899 1899 1899 1899 1899 1899 1909 1899 1899 1899 1899 1899 1888 1888 1888 1899 1888 1888 1899 1888 1899 1899 1888 1888 1888 1888 1888 1888 1888 1888 1899 1888 1888 1888 1888 1899 1899 1899 1899 1899 1899 1909 1909 1909 1909 1909 1909 1920 1920 1920 1920 1920 1931 1931 1931 1931 1931 1931 1931 1941 1941 1952 1952 1964 1964 1964 1964 1975 1975 1986 1986 1998 1998 2009 2009 2009 2021 2021 2033 2033 2045 2057 2057 2057 0 0 0 2930 2930 2955 2955 2955 2955 2955 2955 2980 2980 2980 2980 2980 2980 2980 2980 2980 3006 3006 2980 2980 2980 2980 2980 3006 2980 2980 2980 2980 2980 2980 2980 2955 2980 2980 3006 3006 3006 3006 2980 2980 2980 2980 2980 2980 2980 2980 2980 2980 2980 2980 2980 2980 2980 2980 2980 2980 2980 2980 2980 2980 2955 2980 2980 2980 2980 3006 3006 2980 2980 2980 2980 2980 2980 2980 2980 2980 2980 2980 2980 2980 2980 2980 2980 2980 2980 2955 2955 2930 2930 2930 2930 2930 2930 2930 2955 2955 2955 2930 2955 2955 2930 2930 2930 2930 2930 2955 2930 2930 2955 2955 2955 2955 2955 2955 2980 2980 2955 2980 2980 2955 2980 2955 2955 2955 2955 2955 2955 2955 2955 2955 2955 2955 2955 2955 2955 2955 2955 2955 2955 2955 2955 2955 2955 2955 2955 2955 2955 2955 2955 2930 2930 2930 2930 2930 2955 2955 2955 2980 2980 3006 2980 2980 2955 2955 2955 2955 2955 2955 2955 2955 2955 2955 2955 2980 2980 2955 2930 2930 2930 2930 2930 2930 2930 2930 2955 2955 2955 2955 2955 2955 2955 2955 2930 2930 2930 2930 2930 2930 2930 2930 2930 2955 2955 2955 2955 2980 2980 2980 2980 2980 2980 2980 2955 2980 2980 2955 2980 2980 2980 2980 2980 2980 2980 2980 2980
    0 0 0 0 0 0 0 0 0 0 0 0 0 0 0 0 0 0 0 0 0 0 0 0 0 0 0 0 0 0 0 0 0 0 0 0 0 0 0 0 0 0 0 0 0 0 0 0 0 0 0 0 0 0 0 0 0 0 0 0 0 0 0 0 0 0 0 0 0 0 0 0 0 0 0 0 0 0 0 0 0 0 0 0 0 0 0 0 0 0 0 0 0 0 0 0 0 0 0 0 0 0 0 0 0 0 0 0 0 0 0 0 0 0 0 0 0 0 0 0 0 0 3059 3033 3033 3033 3033 3033 3033 3033 3033 3033 3033 3033 3006 3033 3033 3033 3033 2980 2980 2980 2980 2980 2955 2980 2980 2980 2955 2955 2955 2955 2955 2955 2955 2955 2955 2955 2955 2955 2955 2955 2955 2955 2955 2955 2955 2980 2980 2980 2980 2980 2980 2980 2980 2955 2955 2955 2955 2955 2955 2955 2955 2955 2955 2955 2955 2955 2955 2930 2955 2955 2955 2955 2955 2955 2955 2955 2955 2980 2980 2980 2980 2980 2980 2980 2955 2955 2955 2955 2955 2955 2955 2955 2980 2980 2955 2980 2980 2980 2980 2980 2980 2980 2980 2980 2980 2980 2980 2980 2955 2955 2955 2955 2980 2980 2980 2980 2980 2980 2980 2955 2955 2955 2930 2930 2955 2955 2955 2955 2955 2955 2980 2980 2955 2955 2955 2955 2955 2955 2980 2955 2980 2980 2980 2980 3006 3006 2980 3006 3006 2980 3006 3006 3006 2082 2069 2057 2045 2033 2033 2021 2021 2009 1998 1998 1998 1986 1986 1975 1975 1975 1964 1964 1964 1964 1952 1952 1952 1952 1941 1941 1931 1931 1941 1931 1931 1931 1931 1931 1931 1931 1920 1920 1920 1920 1909 1920 1920 1909 1899 1899 1899 1899 1909 1899 1899 1899 1899 1899 1899 1899 1899 1909 1899 1899 1899 1888 1888 1888 1888 1888 1899 1899 1899 1899 1888 1899 1899 1888 1888 1888 1888 1888 1888 1888 1899 1899 1899 1888 1899 1899 1899 1909 1909 1909 1909 1909 1909 1909 1909 1909 1920 1920 1920 1920 1920 1920 1931 1931 1931 1931 1931 1931 1941 1941 1941 1952 1964 1964 1964 1964 1964 1975 1975 1975 1986 1998 1998 1998 2009 2009 2009 2021 2021 2033 2045 2057 2057 2069 2057 0 0 0 2905 2930 2955 2955 2955 2955 2955 2980 2980 2980 2980 2980 2980 2980 2980 2980 2980 3006 3006 3006 2980 3006 3006 3006 3006 2980 2980 2980 2980 2980 2980 2980 2980 2980 2980 3006 3006 3033 3033 3006 3006 3006 2980 2980 2980 2980 2980 2980 2980 2980 2980 2980 2980 2980 3006 2980 2980 2980 3006 2980 2980 2980 2980 2980 3006 2980 3006 3006 2980 2980 2980 2980 2980 2980 2980 2980 2980 2980 2980 2980 2980 2980 2980 2980 2980 2980 2955 2955 2955 2930 2930 2930 2955 2955 2955 2955 2955 2955 2955 2955 2955 2955 2955 2955 2955 2955 2955 2955 2955 2955 2980 2955 2955 2955 2980 2980 3006 2980 2980 2980 2980 2980 2955 2955 2955 2955 2955 2955 2955 2955 2955 2955 2955 2955 2955 2980 2980 2980 2980 2980 2980 3006 3033 2980 2955 3006 3033 3033 3033 2980 2955 2930 2930 2955 2955 2955 2980 2980 2980 3006 3006 3006 2980 2955 2955 2955 2955 2955 2955 2955 2955 2955 2955 2980 2980 2980 2955 2930 2930 2930 2955 2930 2930 2930 2930 2955 2955 2955 2955 2955 2955 2955 2955 2955 2955 2930 2930 2930 2930 2930 2930 2955 3006 3006 3006 3006 2980 2980 2980 2980 2980 2980 2980 2955 3006 3006 3006 3006 3006 2980 3006 2980 2980 2980 2955 2955
    0 0 0 0 0 0 0 0 0 0 0 0 0 0 0 0 0 0 0 0 0 0 0 0 0 0 0 0 0 0 0 0 0 0 0 0 0 0 0 0 0 0 0 0 0 0 0 0 0 0 0 0 0 0 0 0 0 0 0 0 0 0 0 0 0 0 0 0 0 0 0 0 0 0 0 0 0 0 0 0 0 0 0 0 0 0 0 0 0 0 0 0 0 0 0 0 0 0 0 0 0 0 0 0 0 0 0 0 0 0 0 0 0 0 0 0 0 0 0 0 0 3059 3006 3006 3006 3033 3033 3033 3033 3033 3033 3033 3033 3033 3033 3033 3033 3033 3033 2980 2980 2980 3006 2980 2980 2980 2980 2980 2980 2980 2980 2980 2980 2955 2955 2955 2955 2980 2980 2980 2955 2980 2980 2980 2980 2980 2980 2980 2980 2980 2980 3006 3006 3006 3006 2980 2980 2980 2980 2980 2980 2980 2955 2955 2955 2955 2955 2955 2955 2955 2955 2955 2955 2955 2955 2955 2955 2955 2980 2980 2980 2980 2980 3006 2980 2980 2980 2955 2955 2955 2955 2955 2955 2955 2980 2980 2980 2980 2980 2980 2980 2980 2980 2980 2980 2980 2980 2980 2980 2980 2955 2980 2980 2980 2980 2980 2980 2980 2980 2980 2980 2980 2980 2955 2955 2955 2955 2955 2980 2980 2980 2980 2980 2980 2980 2980 2980 2980 2980 2980 2980 2980 2980 3006 3006 3006 3006 3006 3006 3006 3006 3006 3006 3006 3006 2082 2069 2057 2045 2033 2033 2021 2021 2009 1998 1998 1998 1986 1986 1986 1975 1975 1975 1964 1964 1964 1964 1964 1952 1952 1952 1941 1941 1941 1941 1931 1931 1931 1931 1931 1931 1931 1931 1931 1920 1920 1920 1920 1920 1909 1899 1899 1909 1899 1909 1909 1909 1899 1899 1899 1899 1899 1899 1909 1899 1899 1899 1899 1888 1888 1888 1888 1899 1899 1899 1899 1888 1888 1888 1888 1899 1899 1888 1899 1899 1899 1899 1899 1899 1888 1899 1899 1899 1909 1909 1909 1909 1909 1909 1920 1920 1920 1920 1920 1920 1931 1931 1931 1931 1931 1931 1931 1931 1941 1941 1941 1952 1952 1964 1964 1964 1964 1964 1975 1975 1975 1986 1998 1998 1998 2009 2009 2009 2021 2033 2033 2045 2057 2069 2057 2057 0 0 0 2955 2955 2955 2955 2955 2980 2980 2980 2980 2980 2980 2980 3006 3006 2980 2980 3006 3006 3006 3006 3006 3006 3006 3006 3006 2980 2980 2980 2980 2980 2980 2980 2980 2980 3033 3033 3006 3059 3006 3006 3006 3006 2980 2980 2980 2980 2980 2980 2980 2980 2980 2980 3006 2980 3006 3006 3006 3006 3006 2980 2980 2980 2980 3006 3006 3006 3006 3006 2980 2980 2980 2980 2980 2980 3006 2980 2980 2980 2980 2980 2980 2980 2980 2980 2980 2980 2955 2955 2955 2955 2955 2955 2955 2955 2955 2955 2980 2980 2980 2980 2980 2980 2980 2955 2955 2955 2980 2955 2955 2955 2955 2955 2955 2955 2980 2980 3006 3006 3006 3006 3006 3006 2980 2955 2955 2980 2980 2955 2955 2955 2955 2980 2955 2955 2955 2980 2980 2980 2980 2980 2980 3006 3033 3033 3006 3006 3033 3033 3033 3033 3006 2955 2955 2955 2955 2980 2980 3006 3006 3033 3033 3006 3006 2980 2980 2955 2955 2955 2955 2955 2955 2980 2980 3006 3006 3006 2980 2955 2955 2955 2955 2930 2930 2930 2930 2930 3006 2955 3006 2980 3006 2955 2955 2980 2955 2955 2930 2955 3006 3033 3033 3006 3033 3006 3006 3006 3006 2980 2980 2980 2980 2955 2955 2955 2955 2955 3006 3006 3006 3006 3006 3006 2980 2980 2980 2955
    0 0 0 0 0 0 0 0 0 0 0 0 0 0 0 0 0 0 0 0 0 0 0 0 0 0 0 0 0 0 0 0 0 0 0 0 0 0 0 0 0 0 0 0 0 0 0 0 0 0 0 0 0 0 0 0 0 0 0 0 0 0 0 0 0 0 0 0 0 0 0 0 0 0 0 0 0 0 0 0 0 0 0 0 0 0 0 0 0 0 0 0 0 0 0 0 0 0 0 0 0 0 0 0 0 0 0 0 0 0 0 0 0 0 0 0 0 0 0 0 0 3033 3033 3006 3006 3033 3033 3033 3033 3033 3033 3033 3033 3033 3033 3033 3033 3033 3033 2980 2980 2980 3006 2980 3006 3006 3006 3006 2980 2980 2980 2980 2980 2980 2980 2980 2980 2980 2980 2980 2980 2980 2955 2955 2980 2980 2980 2980 2980 3006 3006 3006 3006 3033 3006 3006 3006 2980 2980 2980 2980 2980 2955 2955 2980 2980 2955 2955 2955 2955 2955 2955 2955 2955 2955 2955 2980 2980 2980 2980 2980 3006 3006 3006 3006 3006 2980 2955 2955 2955 2955 2955 2955 2955 2980 2980 2980 2980 2980 2980 3006 3006 2980 2980 2980 2980 2980 3006 3006 3006 2980 2980 2980 2980 2980 2980 2980 2980 2980 2980 2980 2980 2980 2955 2955 2955 2955 2955 2980 2980 2980 2980 2980 3006 2980 2980 2980 3006 3006 2980 3006 2980 3006 3006 3006 3006 3006 3006 3006 3006 3006 3006 3006 3006 3006 2082 2069 2057 2045 2033 2033 2021 2021 2009 2009 1998 1998 1986 1986 1975 1975 1975 1975 1975 1964 1964 1964 1964 1964 1964 1952 1941 1941 1941 1941 1931 1931 1931 1931 1931 1931 1931 1931 1931 1931 1931 1920 1920 1920 1920 1909 1909 1909 1909 1909 1909 1909 1909 1909 1899 1909 1909 1909 1909 1899 1899 1899 1899 1899 1899 1899 1888 1899 1899 1899 1909 1899 1909 1909 1899 1899 1899 1899 1899 1899 1899 1899 1899 1899 1899 1899 1899 1909 1909 1909 1920 1920 1920 1920 1920 1920 1920 1920 1920 1931 1931 1931 1931 1931 1931 1931 1931 1931 1941 1941 1952 1952 1952 1964 1964 1964 1975 1975 1975 1986 1986 1986 2009 1998 1998 2009 2009 2009 2021 2033 2045 2057 2057 2069 2069 2069 0 0 0 2980 2980 2980 2980 2980 2980 2980 2980 3006 2980 2980 3006 3006 3006 3006 3006 3006 3006 3006 3006 3006 3006 3006 3006 3006 2980 2980 2980 2980 2980 2980 2980 2980 2980 3033 3033 3059 3059 3033 3033 3033 3006 3006 3006 2980 3006 3006 3006 3006 3006 2980 3006 3006 2980 3006 3006 3006 3006 3033 3006 3006 3006 3006 3006 3006 3006 3006 2980 2980 2980 2980 3006 2980 3006 3033 3033 3006 2980 2980 2980 3006 2980 2980 2980 2980 2980 2955 2955 2955 2955 2955 2955 2955 2955 2955 2980 2980 2980 2980 3006 2980 2980 3006 2980 2980 2980 2980 2980 2955 2980 2980 2955 2955 2955 2980 2980 3006 3006 3006 3006 3006 3033 2980 2955 2955 2980 2980 2955 2980 2955 2955 2980 2955 2955 2980 2980 2980 2980 2980 2980 3006 3033 3033 3033 3033 3033 3033 3033 3033 3033 2980 2955 2955 2980 2980 2980 2980 2980 3006 3006 3033 3006 3006 2980 2980 2980 2980 2980 2980 2980 2980 2980 3006 3006 3006 3006 2980 2955 2955 2955 2955 2955 2930 2930 2955 2955 3006 3006 3006 3006 3006 2980 2980 2980 2980 2955 3006 3033 3033 3033 3033 3033 3033 3006 3006 3006 3006 2980 2980 2980 2955 2955 2955 2955 2955 3006 3006 3006 3006 2980 3006 3006 2980 2980 2980 2980
    0 0 0 0 0 0 0 0 0 0 0 0 0 0 0 0 0 0 0 0 0 0 0 0 0 0 0 0 0 0 0 0 0 0 0 0 0 0 0 0 0 0 0 0 0 0 0 0 0 0 0 0 0 0 0 0 0 0 0 0 0 0 0 0 0 0 0 0 0 0 0 0 0 0 0 0 0 0 0 0 0 0 0 0 0 0 0 0 0 0 0 0 0 0 0 0 0 0 0 0 0 0 0 0 0 0 0 0 0 0 0 0 0 0 0 0 0 0 0 0 0 3033 3006 3033 3033 3033 3033 3033 3033 3033 3059 3059 3059 3059 3033 3033 3033 3033 3033 2980 2980 2980 3006 3006 3006 2980 3006 3006 2980 2980 2980 2980 2980 2980 2980 2980 3006 3006 3006 3006 3006 3006 3006 2980 3006 2980 2980 2980 3006 3033 3006 3006 3006 3033 3006 3033 3006 2980 3006 3006 2980 2980 2980 2955 2980 3006 3006 3006 3006 2955 2980 2980 2955 2955 2980 2955 2980 2980 2980 2980 3006 3006 3006 3006 3006 3006 2980 2980 2980 2980 2980 2955 2955 2980 2980 2980 3006 3006 3006 3006 3006 3006 3006 3006 3006 3006 3006 3033 3006 3006 2980 2980 3006 3006 3006 2980 2980 3006 3006 2980 2980 2980 2980 3006 3006 3006 2980 2980 2980 3006 3006 3006 3006 3006 3006 3006 3006 3006 3006 3006 3006 3006 3006 3006 3006 3006 3006 3006 3006 3006 3006 3006 3006 3006 3006 2082 2069 2069 2045 2033 2033 2021 2021 2021 2009 1998 1998 1986 1986 1975 1975 1975 1975 1964 1964 1964 1964 1964 1964 1964 1964 1941 1941 1941 1941 1941 1931 1931 1941 1931 1931 1931 1931 1931 1931 1931 1931 1931 1920 1920 1909 1909 1909 1909 1909 1909 1909 1909 1909 1909 1909 1909 1909 1909 1909 1899 1899 1899 1899 1899 1899 1888 1899 1899 1899 1909 1909 1909 1909 1899 1899 1909 1899 1899 1899 1899 1899 1899 1899 1899 1899 1909 1909 1909 1920 1920 1920 1920 1920 1920 1920 1920 1920 1931 1931 1931 1931 1931 1931 1931 1931 1941 1941 1941 1952 1952 1952 1964 1964 1964 1975 1964 1964 1975 1975 1986 1986 1998 1998 2009 2009 2009 2021 2021 2033 2045 2057 2069 2069 2082 2069 0 0 0 2955 2980 2980 2980 2980 2980 2980 3006 3006 2980 2980 3033 3006 3033 3033 3006 3006 3033 3033 3006 3006 3006 3006 3006 3006 2980 2980 3006 2980 2980 3006 3006 3006 3033 3033 3033 3033 3033 3033 3033 3033 3033 3033 3006 3006 3006 3006 3006 3006 3006 2980 3006 3006 3006 3006 3006 3006 3033 3033 3006 3006 3033 3006 3006 3006 3006 3006 3006 3006 3006 3006 3006 3006 3006 3033 3059 3006 3006 3006 3006 3006 3006 2980 2980 2980 3006 2955 2955 2955 2955 2955 2955 2955 2955 2955 2980 2980 3006 3006 3006 3006 3006 3006 3006 3006 2980 3006 3006 2980 2980 2980 2980 2980 2980 3006 3006 3033 3033 3033 3033 3033 3033 3006 2980 2980 2980 2980 2980 2980 2980 2980 2980 2955 2955 2980 2980 3006 3006 3006 3006 3006 3033 3033 3033 3033 3006 3033 3033 3033 3006 3006 2980 2980 2980 2980 2980 3006 3006 3006 3006 3033 3033 3033 3006 2980 2980 2980 2980 2980 2980 2980 3006 3006 3006 3006 3033 2980 2980 2955 2955 2955 2980 2955 2955 2955 3006 3006 3033 3033 3006 3006 3006 3006 3006 3006 3006 3033 3033 3033 3033 3033 3033 3033 3033 3006 3006 2980 2980 3006 3006 3006 3006 3006 3006 3006 3033 3033 3033 3006 3006 3006 3006 3006 3006 2980 2980
    0 0 0 0 0 0 0 0 0 0 0 0 0 0 0 0 0 0 0 0 0 0 0 0 0 0 0 0 0 0 0 0 0 0 0 0 0 0 0 0 0 0 0 0 0 0 0 0 0 0 0 0 0 0 0 0 0 0 0 0 0 0 0 0 0 0 0 0 0 0 0 0 0 0 0 0 0 0 0 0 0 0 0 0 0 0 0 0 0 0 0 0 0 0 0 0 0 0 0 0 0 0 0 0 0 0 0 0 0 0 0 0 0 0 0 0 0 0 0 0 0 3033 3033 3033 3033 3033 3033 3033 3033 3033 3059 3059 3059 3059 3059 3059 3059 3033 3033 2980 2980 2980 2980 2980 2980 2980 3006 3006 2980 2980 3006 3006 2980 3006 2980 3006 3006 3006 3006 3006 3006 3006 3006 3006 3033 3033 3033 3033 3033 3033 3033 3006 3006 3033 3033 3033 3033 3033 3006 3006 3006 3006 3006 2955 2980 3006 3006 3006 3006 2980 2980 2980 2980 2980 3006 2980 2980 2980 3006 3006 3006 3006 3006 3006 3006 3006 2980 2980 2980 2980 2980 2980 2980 2980 3006 3006 3033 3006 3006 3006 3006 3006 3006 3006 3006 3006 3006 3033 3033 3033 3006 3006 3006 3006 3006 3006 3006 3006 3006 3006 3006 2980 2980 3006 3006 3006 2980 3006 3006 3006 3006 3006 3006 3006 3006 3006 3006 3006 3033 3006 3033 3006 3006 3033 3033 3006 3006 3006 3006 3006 3033 3006 3006 3006 3006 2082 2069 2069 2045 2033 2033 2033 2021 2021 2009 2009 1998 1986 1986 1975 1975 1975 1975 1975 1975 1964 1964 1964 1964 1964 1964 1941 1941 1941 1941 1941 1941 1931 1941 1931 1931 1931 1931 1931 1931 1931 1931 1931 1931 1931 1920 1920 1920 1920 1920 1920 1920 1920 1920 1909 1909 1909 1909 1909 1909 1899 1899 1899 1899 1899 1899 1899 1899 1899 1899 1909 1909 1909 1909 1909 1909 1909 1909 1909 1909 1909 1909 1909 1909 1909 1909 1909 1909 1920 1920 1920 1920 1920 1920 1931 1931 1931 1931 1931 1931 1931 1931 1931 1931 1941 1941 1941 1941 1941 1952 1952 1952 1952 1964 1964 1975 1964 1975 1975 1975 1986 1986 1998 1998 2009 2009 2009 2021 2033 2033 2045 2057 2057 2069 2069 2057 0 0 0 2980 2980 3006 2980 3006 3006 3006 3006 3006 3006 3006 3033 3033 3033 3033 3033 3033 3033 3033 3006 3006 3006 3006 3006 3006 3006 3006 3006 3006 3006 3006 3033 3006 3033 3059 3059 3059 3059 3059 3033 3033 3033 3033 3033 3033 3033 3033 3033 3033 3033 3006 3033 3033 3006 3006 3006 3033 3033 3033 3006 3006 3006 3006 3033 3006 3006 3006 3006 3006 3006 3006 3006 3006 3033 3033 3059 3059 3006 3006 3033 3033 3006 3006 2980 3006 3006 2980 2955 2955 2955 2955 2955 2955 2980 2980 2980 3006 3006 3006 3006 3006 3006 3006 3006 3033 3006 3033 3033 3006 3006 3006 3006 2980 2980 3006 3006 3033 3033 3033 3033 3033 3033 3006 3006 3006 2980 3006 2980 2980 2980 2980 2980 2980 2980 2980 2980 3006 3006 3006 3006 3006 3033 3033 3033 3033 3033 3033 3033 3006 3006 3006 3006 2980 3006 2980 3006 3006 3006 3006 3033 3033 3033 3033 3006 3006 3006 3006 3006 2980 3006 3006 3006 3006 3033 3033 3033 3006 2980 2980 2980 3006 3006 2980 2980 2980 2980 3006 3006 3033 3006 3006 3006 3006 3006 3006 3006 3033 3033 3059 3033 3033 3033 3033 3033 3006 3006 3006 3006 3006 2980 3006 3006 3006 3006 3033 3033 3033 3033 3006 3006 3006 3006 3006 3006 3006 2980
    0 0 0 0 0 0 0 0 0 0 0 0 0 0 0 0 0 0 0 0 0 0 0 0 0 0 0 0 0 0 0 0 0 0 0 0 0 0 0 0 0 0 0 0 0 0 0 0 0 0 0 0 0 0 0 0 0 0 0 0 0 0 0 0 0 0 0 0 0 0 0 0 0 0 0 0 0 0 0 0 0 0 0 0 0 0 0 0 0 0 0 0 0 0 0 0 0 0 0 0 0 0 0 0 0 0 0 0 0 0 0 0 0 0 0 0 0 0 0 0 3033 3059 3033 3033 3033 3033 3033 3033 3033 3033 3059 3059 3059 3059 3059 3059 3059 3059 3033 3006 3006 3006 3006 3006 2980 3006 3006 2980 2980 2980 2980 3006 3006 3006 3006 3006 3006 3006 3006 3006 3006 3006 3006 3033 3033 3033 3033 3033 3033 3033 3033 3006 3006 3033 3033 3033 3033 3006 3006 3006 3006 3006 3006 2955 2980 3006 3006 3006 3006 3006 3006 3006 3006 3006 3006 3006 3006 3006 3006 3006 3006 3006 3006 3006 3033 3033 3006 3006 3006 3006 3006 2980 2980 2980 3033 3033 3033 3033 3033 3006 3033 3033 3033 3033 3033 3033 3033 3033 3033 3033 3006 3006 3006 3006 3006 3006 3006 3006 3006 3006 3033 3033 3006 3006 3006 3006 3006 3006 3006 3006 3006 3033 3006 3006 3006 3006 3033 3033 3033 3033 3033 3033 3033 3033 3033 3033 3006 3033 3033 3006 3033 3006 3006 3006 3006 2082 2069 2069 2057 2045 2045 2033 2021 2021 2021 2009 1998 1986 1986 1986 1975 1975 1975 1975 1975 1964 1964 1964 1964 1964 1964 1952 1952 1952 1941 1952 1941 1941 1941 1941 1941 1941 1941 1941 1941 1931 1931 1931 1931 1931 1920 1920 1920 1920 1920 1920 1920 1920 1920 1909 1909 1909 1909 1909 1909 1899 1909 1899 1899 1899 1899 1899 1899 1899 1909 1909 1909 1909 1909 1899 1909 1909 1899 1909 1909 1909 1909 1909 1920 1920 1920 1920 1920 1920 1920 1920 1920 1931 1931 1931 1931 1931 1931 1931 1931 1931 1931 1931 1931 1941 1941 1941 1941 1952 1952 1952 1964 1952 1964 1964 1975 1975 1975 1975 1975 1975 1986 2009 2009 2009 2009 2021 2021 2033 2045 2057 2057 2057 2069 2069 0 0 0 0 0 2980 3006 3006 3006 3033 3033 3059 3059 3059 3059 3059 3059 3059 3033 3033 3033 3059 3033 3033 3033 3033 3033 3033 3033 3006 3006 3006 3006 3006 3033 3033 3033 3033 3059 3059 3059 3059 3059 3059 3033 3033 3059 3059 3059 3059 3059 3033 3033 3033 3033 3033 3033 3033 3033 3033 3033 3033 3033 3006 3006 3006 3033 3033 3006 3033 3006 3033 3033 3033 3006 3033 3033 3033 3059 3059 3059 3033 3033 3033 3033 3033 3033 3006 3033 3033 2980 2980 2955 2955 2980 2955 2980 2980 2980 3006 3006 3006 3006 3006 3006 3033 3033 3033 3033 3033 3033 3033 3033 3033 3006 3006 2980 2980 3006 3006 3033 3033 3033 3033 3033 3033 3033 3006 2980 2980 2980 2980 2980 2980 2980 2980 2980 2980 2980 2980 3006 3006 3006 3006 3006 3033 3033 3006 3033 3033 3006 3006 3033 3033 3033 3006 3006 3006 3006 3006 3006 3033 3006 3033 3059 3033 3033 3033 3033 3033 3033 3033 3006 3006 3006 3033 3033 3033 3033 3033 3006 3006 3006 2980 3006 3006 2980 3006 3006 3006 3033 3033 3033 3006 3006 3006 3006 3006 3006 3006 3006 3006 3006 3006 3006 3006 3033 3006 3006 3006 3006 3006 3006 3006 3006 3006 3006 3006 3033 3033 3033 3033 3006 3006 3006 3006 3006 3006 3006 3006</data></dframe>
</opencv_storage>
