<?xml version="1.0"?>
<opencv_storage>
<dframe type_id="opencv-matrix">
  <rows>33</rows>
  <cols>640</cols>
  <dt>w</dt>
  <data>
    0 0 0 0 0 0 0 0 0 0 0 0 0 0 0 0 0 0 0 0 0 0 0 0 0 0 0 0 0 0 0 0 0 0 0 0 0 0 0 0 0 0 0 0 0 0 0 0 0 0 0 0 0 0 0 0 0 0 0 0 0 0 0 0 0 0 0 0 0 0 0 0 0 0 0 0 0 0 0 0 0 0 0 0 0 0 0 0 0 0 0 0 0 0 0 0 0 0 0 0 0 0 0 0 0 0 0 0 0 0 0 0 0 0 0 0 0 0 0 0 0 0 0 0 0 2955 2955 2955 2955 2955 2930 2930 2930 2905 2930 2930 2930 2930 2930 2955 2955 2955 2955 2930 2905 2905 2905 2905 2905 2905 2905 2905 2930 2905 2857 2857 2857 2857 2857 2857 2857 2881 2881 2881 2881 2881 2881 2881 2881 2881 2905 2905 2881 2905 2905 2881 2881 2881 2881 2905 2881 2881 2881 2905 2905 2905 2905 2881 2881 2881 2881 2881 2881 2881 2881 2881 2881 2881 2905 2881 2881 2881 2881 2881 2857 2857 2857 2881 2881 2881 2881 2905 2905 2881 2881 2881 2881 2905 2881 2881 2881 2905 2930 2905 2930 2930 2930 2930 2930 2930 2930 2905 2905 2881 2881 2881 2881 2881 2905 2881 2881 2881 2881 2881 2881 2905 2881 2905 2905 2905 2905 2905 2905 2905 2905 2905 2905 2905 2905 2905 2905 2905 2905 2905 2905 2905 2905 2905 2905 2930 2905 2905 2905 2905 2045 2045 2033 2033 2021 2009 1998 1986 1986 1975 1975 1975 1975 1975 1964 1964 1964 1952 1952 1941 1941 1941 1941 1941 1941 1931 1931 1931 1920 1920 1920 1920 1909 1909 1909 1909 1909 1909 1899 1909 1899 1899 1909 1899 1899 1888 1888 1888 1888 1888 1888 1888 1888 1888 1888 1888 1888 1888 1888 1888 1878 1888 1888 1878 1878 1878 1888 1888 1888 1888 1888 1888 1888 1888 1878 1878 1878 1878 1888 1878 1888 1888 1888 1888 1888 1888 1888 1888 1888 1888 1888 1888 1888 1888 1888 1899 1899 1899 1899 1899 1909 1909 1909 1909 1920 1920 1920 1920 1931 1931 1931 1931 1931 1931 1931 1941 1952 1952 1964 1964 1964 1964 1964 1964 1975 1975 1975 1975 1975 1986 1998 2009 2009 2021 2009 2021 0 0 0 0 0 0 2857 2857 2857 2881 2881 2881 2905 2905 2905 2905 2905 2905 2905 2905 2905 2905 2905 2930 2930 2930 2905 2930 2930 2930 2930 2930 2930 2930 2930 2930 2930 2930 2930 2930 2930 2930 2905 2905 2905 2905 2905 2905 2930 2905 2905 2905 2905 2905 2905 2905 2881 2881 2881 2905 2905 2905 2905 2905 2905 2905 2905 2905 2905 2905 2881 2881 2881 2881 2881 2881 2881 2905 2905 2905 2905 2905 2905 2905 2905 2930 2881 2881 2857 2881 2881 2881 2881 2881 2881 2881 2881 2881 2857 2857 2857 2857 2857 2881 2881 2857 2857 2881 2857 2857 2857 2857 2857 2857 2857 2857 2857 2857 2857 2857 2857 2881 2881 2881 2881 2881 2881 2857 2857 2857 2857 2857 2857 2857 2857 2857 2857 2857 2857 2857 2834 2857 2857 2881 2881 2881 2881 2881 2881 2881 2881 2881 2905 2905 2905 2881 2881 2881 2881 2881 2881 2857 2857 2857 2857 2857 2881 2905 2881 2905 2905 2905 2905 2905 2881 2857 2881 2881 2881 2905 2905 2905 2881 2881 2881 2905 2881 2881 2881 2881 2905 2905 2905 2905 2881 2905 2905 2905 2905 2905 2905 2905 2905 2905 2905 2905 2881 2881 2881 2905 2881 2905 2905 2905 2905 2905 2905 2905 2905 2905 2905 2834 2834 2834 2857 2834 2834 2857 2857 2905
    0 0 0 0 0 0 0 0 0 0 0 0 0 0 0 0 0 0 0 0 0 0 0 0 0 0 0 0 0 0 0 0 0 0 0 0 0 0 0 0 0 0 0 0 0 0 0 0 0 0 0 0 0 0 0 0 0 0 0 0 0 0 0 0 0 0 0 0 0 0 0 0 0 0 0 0 0 0 0 0 0 0 0 0 0 0 0 0 0 0 0 0 0 0 0 0 0 0 0 0 0 0 0 0 0 0 0 0 0 0 0 0 0 0 0 0 0 0 0 0 0 0 0 0 2955 2955 2980 2955 2955 2955 2930 2930 2930 2930 2930 2930 2930 2955 2955 2955 2955 2955 2955 2930 2930 2930 2930 2905 2905 2930 2905 2930 2930 2930 2881 2857 2857 2881 2881 2881 2881 2905 2905 2905 2905 2905 2881 2881 2905 2905 2905 2905 2930 2905 2905 2905 2905 2905 2905 2905 2881 2905 2905 2905 2905 2905 2905 2881 2881 2881 2881 2881 2881 2881 2881 2881 2905 2930 2930 2881 2881 2881 2881 2881 2857 2857 2881 2881 2905 2905 2905 2905 2905 2905 2881 2881 2881 2905 2881 2881 2905 2905 2930 2930 2930 2930 2930 2930 2930 2930 2930 2905 2905 2905 2905 2905 2905 2905 2905 2905 2905 2905 2905 2881 2905 2905 2905 2905 2905 2905 2905 2905 2905 2905 2930 2930 2905 2905 2905 2905 2905 2905 2905 2905 2905 2905 2905 2905 2905 2930 2905 2905 2905 2905 2045 2045 2033 2033 2021 2009 2009 1998 1998 1986 1975 1975 1975 1975 1975 1964 1964 1952 1952 1952 1952 1941 1952 1941 1941 1941 1941 1931 1931 1931 1920 1920 1920 1920 1920 1920 1920 1909 1909 1909 1909 1909 1909 1899 1899 1888 1888 1888 1888 1888 1888 1888 1888 1888 1888 1888 1899 1888 1888 1888 1888 1888 1888 1878 1878 1878 1888 1878 1888 1878 1888 1878 1878 1878 1878 1878 1878 1878 1888 1888 1888 1888 1888 1888 1888 1888 1888 1888 1888 1888 1888 1888 1888 1888 1899 1899 1899 1909 1909 1909 1909 1909 1909 1909 1920 1920 1920 1920 1931 1931 1931 1931 1931 1941 1941 1941 1952 1952 1964 1964 1964 1964 1964 1964 1975 1975 1975 1975 1986 1986 1998 2009 2021 2021 2009 2021 2045 2045 0 0 0 0 2857 2857 2881 2881 2905 2905 2930 2930 2930 2930 2955 2930 2930 2930 2905 2930 2930 2955 2955 2955 2930 2955 2955 2955 2930 2930 2930 2930 2930 2930 2930 2930 2930 2930 2930 2930 2930 2930 2930 2905 2930 2930 2930 2930 2930 2905 2905 2905 2905 2905 2881 2905 2881 2905 2905 2905 2905 2905 2905 2905 2905 2955 2955 2930 2930 2930 2955 2955 2881 2881 2905 2905 2905 2905 2930 2955 2955 2955 2930 2930 2905 2905 2857 2857 2881 2881 2905 2881 2881 2881 2905 2905 2881 2857 2857 2857 2881 2881 2881 2881 2881 2881 2881 2881 2881 2881 2857 2881 2881 2857 2857 2857 2857 2857 2881 2881 2881 2881 2881 2881 2881 2881 2857 2881 2881 2881 2881 2881 2881 2857 2857 2881 2857 2857 2857 2881 2930 2930 2930 2930 2930 2930 2930 2881 2905 2905 2905 2905 2930 2905 2930 2930 2905 2905 2905 2881 2881 2881 2881 2881 2930 2905 2881 2881 2905 2905 2905 2905 2881 2881 2881 2881 2905 2930 2905 2905 2881 2905 2905 2905 2905 2881 2905 2881 2905 2905 2905 2905 2905 2905 2905 2905 2905 2905 2905 2905 2905 2905 2905 2905 2905 2905 2905 2905 2905 2905 2905 2905 2905 2905 2905 2905 2905 2905 2905 2881 2857 2857 2857 2834 2834 2857 2881 2905
    0 0 0 0 0 0 0 0 0 0 0 0 0 0 0 0 0 0 0 0 0 0 0 0 0 0 0 0 0 0 0 0 0 0 0 0 0 0 0 0 0 0 0 0 0 0 0 0 0 0 0 0 0 0 0 0 0 0 0 0 0 0 0 0 0 0 0 0 0 0 0 0 0 0 0 0 0 0 0 0 0 0 0 0 0 0 0 0 0 0 0 0 0 0 0 0 0 0 0 0 0 0 0 0 0 0 0 0 0 0 0 0 0 0 0 0 0 0 0 0 0 0 0 0 2955 2955 2980 2955 2955 2955 2930 2955 2930 2930 2930 2955 2955 2955 2955 2955 2955 2955 2955 2930 2930 2930 2930 2930 2930 2930 2930 2930 2930 2930 2930 2930 2881 2881 2881 2930 2881 2905 2905 2905 2930 2905 2905 2930 2930 2930 2930 2930 2930 2905 2905 2905 2905 2905 2905 2905 2905 2905 2905 2905 2905 2905 2905 2905 2905 2881 2881 2881 2881 2881 2881 2905 2905 2905 2930 2930 2930 2930 2881 2881 2881 2881 2881 2905 2905 2905 2905 2905 2905 2905 2881 2905 2881 2881 2881 2881 2905 2905 2930 2930 2930 2930 2930 2930 2930 2930 2930 2905 2905 2905 2905 2905 2905 2905 2905 2905 2905 2905 2905 2905 2905 2905 2905 2905 2905 2930 2930 2930 2930 2930 2930 2930 2930 2905 2905 2905 2905 2905 2905 2905 2930 2930 2930 2930 2930 2930 2930 2905 2905 2905 2057 2057 2033 2033 2021 2021 2009 1998 1998 1986 1986 1986 1975 1975 1975 1975 1964 1964 1952 1952 1952 1941 1941 1941 1941 1941 1941 1931 1931 1931 1920 1920 1920 1920 1920 1920 1920 1920 1920 1920 1909 1909 1909 1909 1909 1899 1888 1888 1888 1888 1888 1888 1888 1888 1899 1899 1899 1888 1888 1888 1888 1888 1878 1878 1878 1878 1888 1878 1878 1878 1888 1878 1878 1878 1878 1888 1878 1878 1888 1878 1888 1888 1888 1888 1888 1888 1888 1888 1888 1888 1888 1888 1888 1888 1899 1899 1909 1909 1909 1909 1920 1920 1920 1920 1920 1920 1920 1920 1931 1931 1931 1931 1941 1941 1941 1952 1952 1964 1964 1964 1964 1964 1964 1964 1964 1975 1975 1975 1975 1986 1998 2009 2021 2021 2021 2033 2033 0 0 0 0 0 2881 2881 2881 2881 2905 2905 2930 2930 2930 2955 2955 2955 2955 2930 2930 2930 2955 2955 2955 2955 2955 2955 2955 2955 2930 2930 2955 2930 2955 2930 2930 2930 2930 2930 2930 2930 2930 2930 2930 2930 2930 2930 2930 2905 2930 2905 2905 2905 2905 2905 2881 2905 2905 2905 2905 2905 2905 2930 2905 2905 2955 2955 2955 2955 2955 2955 2955 2955 2955 2881 2955 2955 2955 2955 2955 2955 2955 2955 2955 2955 2930 2905 2905 2881 2881 2905 2905 2905 2905 2905 2905 2905 2881 2881 2881 2881 2881 2905 2905 2881 2905 2881 2881 2881 2905 2881 2881 2881 2881 2881 2881 2881 2881 2881 2881 2881 2905 2905 2905 2905 2905 2881 2881 2881 2881 2905 2905 2905 2881 2881 2881 2881 2881 2881 2857 2881 2881 2905 2905 2881 2905 2905 2905 2905 2905 2905 2905 2930 2930 2930 2930 2930 2930 2905 2930 2905 2881 2905 2930 2905 2905 2930 2905 2905 2930 2905 2905 2905 2881 2881 2881 2905 2905 2930 2905 2905 2905 2905 2905 2905 2905 2905 2905 2881 2905 2905 2905 2905 2905 2905 2905 2905 2905 2930 2905 2905 2905 2905 2930 2930 2905 2905 2905 2905 2905 2905 2905 2905 2905 2905 2905 2905 2905 2905 2930 2905 2905 2905 2905 2857 2857 2905 2881 2930
    0 0 0 0 0 0 0 0 0 0 0 0 0 0 0 0 0 0 0 0 0 0 0 0 0 0 0 0 0 0 0 0 0 0 0 0 0 0 0 0 0 0 0 0 0 0 0 0 0 0 0 0 0 0 0 0 0 0 0 0 0 0 0 0 0 0 0 0 0 0 0 0 0 0 0 0 0 0 0 0 0 0 0 0 0 0 0 0 0 0 0 0 0 0 0 0 0 0 0 0 0 0 0 0 0 0 0 0 0 0 0 0 0 0 0 0 0 0 0 0 0 0 0 0 2980 2980 2980 2980 2955 2955 2955 2955 2955 2930 2955 2955 2955 2955 2955 2980 2955 2955 2955 2930 2930 2930 2930 2930 2930 2930 2930 2930 2930 2930 2930 2930 2930 2930 2930 2930 2930 2930 2930 2930 2930 2930 2930 2930 2930 2930 2930 2930 2930 2905 2905 2905 2905 2905 2905 2905 2905 2905 2905 2905 2905 2905 2905 2905 2905 2881 2881 2905 2905 2905 2905 2905 2905 2930 2930 2905 2930 2930 2905 2881 2881 2881 2881 2905 2905 2905 2905 2905 2905 2905 2881 2905 2905 2905 2881 2905 2905 2930 2930 2930 2930 2930 2930 2930 2930 2930 2930 2905 2905 2905 2930 2930 2930 2905 2930 2930 2930 2905 2905 2905 2905 2905 2905 2930 2930 2930 2930 2930 2930 2930 2930 2930 2930 2930 2930 2930 2930 2930 2930 2930 2930 2930 2930 2930 2930 2930 2930 2930 2905 2069 2069 2057 2033 2033 2021 2021 2009 1998 1998 1986 1986 1975 1975 1975 1975 1964 1964 1964 1941 1952 1952 1941 1952 1941 1941 1941 1941 1931 1931 1931 1920 1920 1920 1920 1920 1920 1920 1920 1920 1920 1909 1909 1909 1909 1909 1888 1888 1888 1888 1888 1888 1888 1888 1888 1888 1888 1899 1888 1888 1888 1888 1888 1878 1878 1878 1878 1878 1878 1878 1878 1888 1888 1888 1888 1878 1878 1878 1878 1878 1888 1888 1888 1888 1888 1888 1888 1888 1888 1888 1888 1888 1888 1899 1899 1899 1899 1909 1909 1909 1909 1920 1920 1920 1920 1920 1920 1920 1920 1931 1931 1931 1931 1941 1941 1941 1952 1952 1952 1964 1964 1964 1964 1964 1964 1975 1975 1975 1975 1986 1998 2009 2021 2021 2021 2021 2033 2045 0 0 0 0 0 2881 2881 2881 2905 2930 2930 2955 2955 2955 2955 2955 2955 2955 2955 2955 2955 2955 2955 2955 2955 2955 2955 2955 2955 2955 2955 2955 2955 2955 2955 2955 2955 2930 2930 2930 2930 2930 2930 2930 2930 2930 2930 2955 2930 2930 2930 2930 2930 2930 2930 2905 2930 2930 2930 2905 2930 2930 2930 2930 2905 2955 2955 2955 2955 2955 2955 2955 2955 2955 2955 2955 2955 2980 2980 2980 2955 2955 2955 2955 2955 2930 2905 2905 2881 2905 2905 2905 2905 2905 2905 2930 2930 2905 2881 2905 2905 2905 2905 2881 2881 2881 2881 2930 2905 2930 2930 2930 2930 2930 2905 2881 2905 2881 2905 2905 2905 2905 2905 2930 2905 2905 2905 2930 2881 2881 2930 2930 2905 2905 2881 2905 2905 2905 2881 2881 2881 2905 2955 2905 2955 2955 2930 2905 2905 2905 2905 2930 2930 2930 2930 2930 2930 2930 2905 2930 2955 2955 2955 2955 2930 2930 2930 2905 2905 2930 2905 2930 2905 2881 2881 2881 2881 2905 2905 2881 2905 2881 2881 2905 2905 2905 2905 2905 2905 2905 2905 2905 2905 2905 2930 2905 2930 2905 2930 2905 2905 2905 2905 2905 2930 2905 2905 2905 2905 2905 2930 2930 2930 2905 2930 2905 2930 2930 2930 2930 2930 2930 2905 2905 2857 2857 2905 2905 2905
    0 0 0 0 0 0 0 0 0 0 0 0 0 0 0 0 0 0 0 0 0 0 0 0 0 0 0 0 0 0 0 0 0 0 0 0 0 0 0 0 0 0 0 0 0 0 0 0 0 0 0 0 0 0 0 0 0 0 0 0 0 0 0 0 0 0 0 0 0 0 0 0 0 0 0 0 0 0 0 0 0 0 0 0 0 0 0 0 0 0 0 0 0 0 0 0 0 0 0 0 0 0 0 0 0 0 0 0 0 0 0 0 0 0 0 0 0 0 0 0 0 0 0 0 2980 2980 2980 2980 2980 2955 2955 2955 2955 2955 2955 2955 2955 2955 2980 2980 2980 2980 2980 2930 2930 2930 2930 2930 2930 2930 2930 2930 2930 2930 2930 2930 2930 2930 2930 2930 2930 2930 2930 2930 2930 2930 2930 2930 2930 2930 2930 2930 2930 2930 2930 2905 2930 2905 2905 2930 2905 2930 2955 2905 2930 2905 2905 2905 2905 2905 2905 2905 2905 2905 2930 2930 2930 2930 2930 2905 2930 2930 2905 2905 2905 2905 2905 2930 2930 2930 2930 2930 2930 2905 2905 2905 2905 2905 2905 2905 2930 2930 2930 2930 2930 2930 2930 2955 2930 2955 2930 2905 2930 2905 2930 2930 2930 2930 2930 2930 2930 2905 2905 2905 2905 2930 2930 2930 2930 2930 2930 2930 2930 2930 2930 2930 2930 2930 2930 2930 2930 2930 2930 2930 2930 2930 2930 2955 2955 2955 2955 2955 2930 2069 2069 2057 2045 2033 2033 2021 2009 1998 1998 1986 1986 1975 1975 1975 1975 1964 1964 1964 1952 1952 1952 1941 1941 1941 1941 1941 1941 1931 1931 1931 1931 1931 1931 1931 1920 1920 1920 1920 1920 1920 1920 1909 1909 1909 1909 1888 1888 1899 1888 1888 1888 1888 1888 1888 1888 1888 1899 1888 1888 1888 1888 1888 1888 1888 1888 1888 1888 1888 1888 1888 1888 1888 1888 1888 1888 1888 1888 1888 1878 1888 1888 1888 1888 1888 1888 1888 1888 1888 1888 1899 1888 1888 1899 1899 1899 1909 1909 1909 1909 1909 1920 1920 1920 1920 1920 1920 1920 1920 1931 1931 1931 1931 1941 1941 1941 1952 1964 1964 1964 1964 1964 1964 1975 1975 1975 1975 1975 1986 1986 1998 2009 2021 2021 2033 2021 2033 2045 0 0 0 0 0 0 2905 2905 2930 2930 2930 2955 2955 2955 2955 2955 2955 2955 2955 2955 2955 2955 2955 2955 2955 2955 2955 2955 2955 2955 2955 2955 2955 2955 2955 2955 2955 2955 2955 2930 2955 2955 2955 2955 2955 2955 2955 2955 2955 2955 2930 2930 2955 2930 2930 2930 2930 2930 2930 2930 2930 2930 2930 2930 2930 2955 2955 2955 2955 2955 2955 2955 2955 2955 2955 2955 2980 2980 2980 2955 2980 2955 2955 2955 2955 2930 2930 2930 2930 2930 2905 2905 2905 2905 2905 2930 2930 2905 2905 2930 2905 2905 2905 2905 2881 2881 2881 2930 2930 2930 2930 2930 2930 2930 2930 2930 2930 2881 2905 2905 2905 2905 2905 2905 2905 2905 2881 2905 2905 2905 2905 2905 2905 2905 2905 2905 2905 2905 2905 2881 2905 2955 2955 2955 2955 2955 2955 2955 2905 2905 2905 2905 2930 2930 2930 2930 2930 2930 2930 2930 2930 2930 2930 2955 2930 2930 2930 2905 2930 2930 2930 2930 2930 2881 2905 2905 2905 2905 2905 2905 2905 2905 2905 2905 2905 2905 2905 2905 2881 2905 2905 2905 2905 2905 2905 2905 2905 2905 2905 2905 2905 2905 2905 2905 2905 2905 2905 2905 2905 2905 2930 2930 2930 2930 2930 2930 2930 2930 2930 2930 2930 2930 2905 2905 2905 2905 2905 2930 2930
    0 0 0 0 0 0 0 0 0 0 0 0 0 0 0 0 0 0 0 0 0 0 0 0 0 0 0 0 0 0 0 0 0 0 0 0 0 0 0 0 0 0 0 0 0 0 0 0 0 0 0 0 0 0 0 0 0 0 0 0 0 0 0 0 0 0 0 0 0 0 0 0 0 0 0 0 0 0 0 0 0 0 0 0 0 0 0 0 0 0 0 0 0 0 0 0 0 0 0 0 0 0 0 0 0 0 0 0 0 0 0 0 0 0 0 0 0 0 0 0 0 0 0 0 2980 2980 2980 2980 2980 2955 2955 2955 2955 2955 2955 2955 2980 2955 2980 2980 2980 2980 2980 2955 2955 2955 2930 2955 2955 2930 2930 2930 2955 2930 2955 2930 2930 2930 2930 2930 2930 2930 2930 2930 2930 2930 2930 2930 2930 2930 2930 2930 2930 2930 2930 2930 2930 2930 2930 2930 2930 2930 2930 2930 2930 2930 2905 2905 2905 2905 2905 2930 2930 2930 2930 2930 2930 2930 2930 2930 2905 2930 2905 2905 2905 2905 2905 2930 2930 2930 2930 2930 2930 2930 2905 2930 2930 2930 2905 2930 2930 2955 2955 2955 2955 2955 2955 2955 2930 2955 2955 2930 2930 2930 2930 2930 2955 2930 2930 2930 2930 2930 2930 2930 2930 2930 2930 2930 2930 2930 2930 2930 2930 2930 2930 2930 2930 2930 2930 2930 2930 2930 2930 2930 2930 2955 2955 2930 2955 2955 2955 2955 2930 2069 2082 2057 2045 2045 2033 2021 2009 2009 1998 1998 1986 1986 1975 1975 1975 1964 1964 1964 1952 1952 1952 1941 1952 1941 1941 1941 1941 1931 1931 1931 1931 1931 1931 1920 1920 1920 1920 1931 1931 1920 1920 1920 1909 1909 1909 1888 1888 1899 1899 1899 1899 1899 1888 1899 1899 1899 1899 1888 1888 1888 1888 1899 1888 1888 1888 1888 1888 1888 1888 1888 1878 1888 1888 1888 1888 1888 1888 1888 1888 1888 1888 1888 1899 1888 1888 1888 1888 1888 1899 1899 1888 1899 1899 1899 1899 1909 1909 1909 1909 1909 1920 1920 1920 1920 1920 1920 1920 1920 1931 1931 1931 1931 1941 1941 1941 1952 1964 1952 1964 1964 1964 1964 1975 1975 1975 1986 1986 1998 1998 2009 2009 2021 2021 2021 2021 2033 2045 0 0 0 0 0 2905 2905 2905 2930 2930 2930 2955 2955 2955 2955 2955 2955 2955 2955 2955 2955 2980 2980 2980 2955 2955 2955 2955 2955 2955 2955 2955 2955 2955 2955 2955 2955 2955 2955 2955 2955 2955 2955 2955 2955 2955 2955 2955 2955 2955 2955 2930 2955 2930 2930 2930 2955 2955 2955 2930 2955 2930 2955 2930 2930 2930 2930 2955 2955 2955 2955 2955 2955 2955 2955 2955 2980 2980 2980 2955 2980 2980 2980 2980 2980 2955 2930 2930 2955 2930 2930 2905 2905 2930 2930 2930 2930 2930 2905 2930 2905 2905 2905 2905 2905 2905 2905 2905 2930 2930 2930 2930 2930 2930 2930 2930 2930 2930 2930 2930 2930 2930 2930 2930 2905 2905 2905 2955 2905 2905 2905 2905 2905 2905 2905 2905 2905 2905 2905 2905 2905 2955 2955 2955 2955 2955 2955 2930 2930 2930 2930 2930 2955 2955 2930 2955 2955 2930 2930 2955 2930 2930 2930 2955 2930 2930 2930 2905 2905 2930 2930 2930 2930 2905 2905 2905 2905 2905 2905 2905 2905 2905 2905 2905 2905 2905 2905 2905 2905 2905 2905 2905 2930 2930 2930 2905 2905 2905 2905 2905 2905 2905 2905 2905 2930 2905 2905 2905 2905 2930 2930 2955 2930 2930 2955 2980 2980 2930 2930 2930 2930 2930 2905 2905 2905 2905 2930 2930 2930
    0 0 0 0 0 0 0 0 0 0 0 0 0 0 0 0 0 0 0 0 0 0 0 0 0 0 0 0 0 0 0 0 0 0 0 0 0 0 0 0 0 0 0 0 0 0 0 0 0 0 0 0 0 0 0 0 0 0 0 0 0 0 0 0 0 0 0 0 0 0 0 0 0 0 0 0 0 0 0 0 0 0 0 0 0 0 0 0 0 0 0 0 0 0 0 0 0 0 0 0 0 0 0 0 0 0 0 0 0 0 0 0 0 0 0 0 0 0 0 0 0 0 0 0 2980 3006 2980 2980 2980 2980 2980 2980 2980 2980 2980 2980 2980 2980 2980 2980 2980 2980 2980 2955 2955 2955 2955 2955 2955 2955 2955 2955 2955 2955 2955 2930 2930 2930 2930 2930 2905 2930 2930 2930 2930 2930 2930 2930 2930 2930 2930 2955 2930 2930 2930 2930 2930 2930 2930 2930 2930 2930 2930 2930 2930 2930 2930 2930 2905 2905 2930 2930 2930 2930 2930 2930 2955 2955 2955 2930 2930 2930 2930 2930 2930 2930 2930 2930 2930 2930 2930 2930 2930 2930 2905 2930 2930 2930 2930 2930 2930 2955 2955 2955 2955 2955 2955 2955 2955 2955 2955 2930 2930 2930 2930 2930 2955 2955 2930 2955 2930 2930 2930 2930 2930 2930 2930 2930 2930 2930 2930 2930 2930 2930 2955 2930 2930 2930 2930 2930 2930 2930 2930 2930 2955 2930 2955 2955 2955 2955 2955 2955 2955 2082 2082 2069 2057 2045 2033 2021 2009 2009 1998 1986 1986 1986 1986 1975 1975 1975 1964 1964 1941 1941 1941 1941 1941 1941 1941 1941 1941 1941 1931 1931 1931 1931 1931 1931 1931 1931 1931 1931 1931 1920 1920 1920 1909 1920 1920 1888 1899 1899 1899 1888 1899 1888 1888 1888 1888 1888 1888 1888 1888 1888 1888 1888 1888 1888 1888 1888 1888 1888 1888 1888 1888 1888 1888 1888 1888 1888 1888 1888 1888 1888 1888 1888 1899 1888 1888 1888 1888 1888 1888 1899 1888 1899 1899 1899 1899 1909 1909 1909 1909 1909 1920 1920 1920 1920 1920 1931 1931 1931 1931 1931 1931 1931 1941 1941 1941 1952 1964 1964 1964 1964 1964 1964 1975 1975 1975 1975 1986 1998 1998 2009 2009 2021 2033 2045 2033 2045 2045 0 0 0 0 0 2930 2905 2930 2930 2930 2955 2955 2955 2955 2955 2955 2955 2955 2980 2980 2980 2980 2980 2980 2980 2980 2955 2955 2955 2955 2955 2955 2955 2955 2955 2955 2955 2955 2955 2955 2955 2955 2955 2955 2955 2955 2955 2955 2955 2955 2955 2955 2955 2955 2955 2955 2955 2955 2955 2955 2955 2955 2955 2930 2905 2930 2955 2955 2955 2955 2955 2955 2980 2980 2955 2930 2955 2980 2980 2980 2980 2980 2980 2980 2980 2955 2930 2955 2955 2930 2930 2930 2930 2930 2930 2930 2930 2930 2930 2930 2930 2905 2905 2905 2905 2905 2905 2905 2905 2930 2930 2930 2955 2930 2930 2930 2930 2930 2955 2930 2930 2930 2930 2930 2930 2905 2905 2905 2930 2905 2930 2930 2930 2930 2905 2905 2905 2905 2905 2905 2905 2955 2955 2930 2955 2955 2980 2930 2955 2955 2955 2955 2955 2955 2955 2955 2955 2955 2955 2955 2955 2955 2955 2955 2930 2930 2930 2930 2930 2930 2930 2930 2930 2905 2905 2905 2905 2905 2905 2905 2905 2905 2905 2905 2905 2905 2905 2905 2905 2930 2930 2930 2930 2930 2930 2930 2905 2905 2905 2905 2905 2905 2905 2905 2905 2905 2905 2905 2905 2930 2930 2955 2955 2955 2980 2980 2980 2955 2930 2930 2930 2930 2930 2930 2930 2930 2930 2955 2955
    0 0 0 0 0 0 0 0 0 0 0 0 0 0 0 0 0 0 0 0 0 0 0 0 0 0 0 0 0 0 0 0 0 0 0 0 0 0 0 0 0 0 0 0 0 0 0 0 0 0 0 0 0 0 0 0 0 0 0 0 0 0 0 0 0 0 0 0 0 0 0 0 0 0 0 0 0 0 0 0 0 0 0 0 0 0 0 0 0 0 0 0 0 0 0 0 0 0 0 0 0 0 0 0 0 0 0 0 0 0 0 0 0 0 0 0 0 0 0 0 0 0 0 2980 2980 2980 3006 3006 2980 2980 2980 2980 2980 2980 2980 2980 2980 2980 2980 2980 2980 2980 2980 2955 2955 2955 2955 2955 2955 2955 2955 2955 2955 2955 2955 2955 2955 2955 2955 2930 2955 2955 2955 2955 2955 2930 2955 2955 2955 2955 2955 2955 2930 2930 2930 2930 2930 2930 2930 2930 2955 2955 2930 2930 2955 2930 2930 2930 2930 2930 2930 2930 2930 2930 2930 2930 2955 2955 2955 2955 2955 2955 2955 2955 2930 2930 2930 2930 2930 2930 2930 2930 2930 2930 2930 2930 2930 2930 2930 2930 2955 2955 2955 2955 2955 2955 2955 2955 2955 2955 2955 2930 2930 2930 2930 2930 2955 2955 2955 2955 2955 2930 2930 2930 2930 2930 2930 2930 2930 2955 2955 2955 2955 2955 2955 2930 2955 2930 2930 2930 2930 2930 2955 2955 2955 2955 2955 2955 2955 2980 2980 2955 2980 2082 2082 2069 2057 2045 2033 2021 2021 2009 1998 1986 1986 1986 1986 1975 1975 1975 1975 1975 1952 1952 1952 1941 1941 1941 1941 1941 1941 1931 1931 1931 1931 1931 1931 1931 1931 1931 1931 1931 1931 1920 1920 1920 1909 1920 1920 1888 1899 1899 1899 1899 1899 1888 1888 1888 1899 1888 1888 1888 1888 1899 1888 1888 1899 1888 1899 1899 1899 1888 1888 1888 1888 1888 1888 1888 1888 1888 1888 1888 1888 1888 1888 1888 1888 1888 1888 1888 1888 1888 1888 1899 1888 1899 1909 1909 1909 1909 1920 1909 1909 1920 1920 1920 1920 1920 1920 1931 1931 1931 1931 1931 1931 1931 1941 1941 1941 1952 1952 1964 1964 1964 1964 1975 1975 1975 1975 1986 1986 1998 1998 2009 2021 2021 2033 2045 2045 2045 2045 0 0 0 0 0 2930 2930 2930 2930 2955 2955 2955 2955 2980 2980 2980 2980 2980 2980 2980 2980 2980 2980 2980 2980 2980 2980 2980 2980 2955 2955 2955 2955 2955 2955 2955 2955 2955 2955 2955 2955 2955 2955 2955 2955 2955 2955 2955 2955 2955 2955 2955 2955 2955 2955 2955 2955 2955 2955 2955 2955 2955 2955 2955 2930 2930 2955 2955 2955 2955 2955 2955 2955 2980 2955 2930 2955 2955 2980 2980 2980 2980 2980 3006 3006 2955 2930 2955 2930 2930 2930 2930 2930 2930 2930 2930 2930 2930 2930 2930 2930 2930 2930 2930 2905 2905 2905 2905 2930 2930 2930 2955 2955 2955 2955 2955 2930 2930 2955 2955 2930 2930 2930 2930 2930 2930 2930 2930 2930 2905 2930 2930 2930 2930 2930 2930 2905 2930 2930 2905 2905 2905 2930 2930 2955 2930 2980 2955 2955 2955 2955 2955 2955 2955 2955 2955 2955 2955 2955 2955 2955 2955 2955 2955 2955 2930 2930 2930 2930 2930 2930 2930 2930 2905 2905 2930 2930 2930 2930 2905 2905 2905 2905 2905 2905 2905 2905 2930 2905 2930 2930 2930 2930 2930 2930 2930 2930 2930 2930 2905 2930 2905 2905 2905 2905 2905 2905 2905 2905 2930 2930 2955 2955 2955 2955 2955 2980 2980 2955 2955 2955 2955 2955 2930 2930 2930 2955 2955 2955
    0 0 0 0 0 0 0 0 0 0 0 0 0 0 0 0 0 0 0 0 0 0 0 0 0 0 0 0 0 0 0 0 0 0 0 0 0 0 0 0 0 0 0 0 0 0 0 0 0 0 0 0 0 0 0 0 0 0 0 0 0 0 0 0 0 0 0 0 0 0 0 0 0 0 0 0 0 0 0 0 0 0 0 0 0 0 0 0 0 0 0 0 0 0 0 0 0 0 0 0 0 0 0 0 0 0 0 0 0 0 0 0 0 0 0 0 0 0 0 0 0 0 0 3006 3006 3006 3006 3006 2980 3006 2980 3006 3006 2980 2980 2980 3006 3006 3006 2980 2980 2980 2980 2955 2955 2955 2955 2955 2980 2955 2955 2955 2980 2955 2955 2955 2955 2955 2955 2955 2955 2955 2930 2955 2955 2930 2955 2955 2955 2955 2955 2955 2930 2930 2930 2930 2930 2930 2930 2930 2955 2955 2955 2955 2955 2955 2955 2930 2930 2930 2930 2930 2930 2930 2930 2930 2955 2955 2955 2955 2955 2980 2955 2955 2955 2955 2930 2955 2955 2930 2955 2955 2955 2955 2930 2955 2955 2955 2955 2955 2955 2955 2955 2955 2955 2955 2955 2955 2955 2955 2955 2930 2930 2930 2930 2955 2955 2955 2955 2955 2955 2955 2930 2930 2930 2930 2930 2955 2955 2955 2955 2955 2955 2955 2955 2955 2955 2955 2955 2930 2930 2930 2955 2955 2955 2980 2980 2980 2980 2980 2980 2980 2980 2082 2082 2069 2069 2045 2045 2033 2021 2009 1998 1998 1998 1986 1986 1975 1975 1975 1964 1964 1952 1952 1952 1941 1952 1941 1941 1941 1941 1941 1931 1931 1931 1931 1931 1931 1931 1931 1931 1931 1920 1920 1920 1920 1909 1909 1909 1899 1888 1899 1899 1899 1899 1899 1888 1899 1888 1888 1888 1888 1888 1899 1899 1899 1899 1899 1899 1899 1899 1888 1888 1888 1888 1888 1888 1888 1888 1888 1888 1888 1888 1888 1888 1888 1899 1888 1888 1888 1888 1888 1888 1899 1888 1899 1909 1909 1909 1920 1909 1909 1909 1920 1920 1920 1920 1920 1931 1931 1931 1931 1931 1931 1931 1931 1941 1941 1952 1952 1964 1964 1964 1964 1964 1975 1975 1975 1975 1986 1986 1998 1998 2009 2021 2033 2045 2057 2045 2045 0 0 0 0 0 2905 2930 2930 2930 2930 2955 2955 2955 2955 2980 2980 2980 2980 2980 2980 2980 2980 2980 2980 2980 2980 2980 2980 2980 2980 2980 2955 2955 2955 2955 2955 2955 2955 2955 2955 2955 2955 2955 2955 2955 2980 2955 2955 2955 2955 2955 2955 2955 2955 2955 2955 2980 2980 2980 2955 2955 2955 2955 2955 2955 2930 2955 2955 2980 2955 2955 2955 2980 2980 2980 2980 2955 2955 2980 2980 2980 2980 2955 2955 3006 3006 2930 2930 2955 2930 2930 2930 2930 2930 2930 2930 2930 2930 2930 2930 2930 2930 2930 2930 2930 2930 2905 2905 2930 2930 2955 2955 2955 2955 2955 2955 2955 2955 2955 2955 2955 2930 2930 2930 2930 2930 2930 2930 2930 2930 2930 2930 2930 2955 2955 2930 2955 2930 2930 2930 2930 2930 2930 2930 2955 2980 2980 2980 2980 2955 2955 2955 2955 2955 2955 2955 2955 2930 2930 2930 2955 2955 2955 2955 2955 2955 2955 2955 2930 2930 2930 2930 2930 2930 2930 2930 2905 2905 2930 2930 2905 2905 2905 2905 2930 2930 2905 2905 2930 2930 2930 2930 2930 2930 2930 2930 2930 2930 2930 2930 2905 2905 2905 2905 2905 2930 2930 2930 2930 2930 2930 2955 2980 2955 2980 3006 3006 2980 2980 2980 2955 2955 2955 2930 2930 2930 2930 2955 2955 2980
    0 0 0 0 0 0 0 0 0 0 0 0 0 0 0 0 0 0 0 0 0 0 0 0 0 0 0 0 0 0 0 0 0 0 0 0 0 0 0 0 0 0 0 0 0 0 0 0 0 0 0 0 0 0 0 0 0 0 0 0 0 0 0 0 0 0 0 0 0 0 0 0 0 0 0 0 0 0 0 0 0 0 0 0 0 0 0 0 0 0 0 0 0 0 0 0 0 0 0 0 0 0 0 0 0 0 0 0 0 0 0 0 0 0 0 0 0 0 0 0 0 0 0 3006 3006 3006 3006 3006 3006 3006 3006 3006 3006 3006 3006 3006 3033 3033 3033 3006 2980 3006 3006 2955 2980 2980 2955 2980 2980 2980 2980 2955 2980 2955 2955 2955 2955 2955 2955 2955 2955 2955 2955 2955 2955 2955 2955 2955 2955 2955 2955 2955 2955 2955 2955 2955 2955 2930 2955 2955 2955 2955 2955 2955 2955 2955 2955 2955 2930 2930 2930 2955 2955 2955 2955 2955 2955 2955 2955 2955 2980 2980 2980 2980 2980 2955 2955 2955 2955 2955 2955 2955 2955 2955 2955 2955 2955 2955 2955 2955 2955 2955 2955 2955 2955 2955 2955 2955 2955 2955 2955 2930 2930 2955 2955 2955 2980 2980 2980 2980 2980 2955 2955 2955 2930 2930 2955 2955 2955 2955 2955 2955 2955 2955 2955 2955 2955 2955 2955 2955 2930 2955 2955 2955 2955 2955 2980 2980 2980 2980 2980 2980 2980 2980 2082 2082 2069 2057 2045 2033 2021 2009 2009 1998 1986 1986 1986 1986 1975 1975 1975 1964 1964 1964 1952 1952 1952 1941 1941 1941 1941 1941 1941 1941 1931 1931 1931 1931 1931 1931 1931 1931 1920 1920 1920 1920 1909 1909 1909 1899 1899 1899 1899 1899 1899 1899 1888 1899 1888 1899 1888 1888 1888 1888 1888 1899 1899 1899 1899 1899 1899 1888 1888 1888 1888 1888 1888 1888 1888 1888 1888 1888 1888 1888 1888 1899 1899 1888 1888 1888 1888 1888 1888 1899 1899 1909 1909 1909 1909 1920 1920 1909 1920 1920 1920 1920 1920 1920 1931 1931 1931 1931 1931 1931 1941 1931 1941 1941 1952 1952 1964 1964 1964 1964 1975 1975 1975 1975 1986 1975 1998 1998 2009 2021 2033 2045 2057 2057 2057 2057 0 0 0 0 0 2930 2930 2930 2955 2955 2955 2955 2955 2980 2980 2980 2980 2980 2980 2980 2980 2980 2980 2980 2980 2980 2980 2980 2980 2980 2955 2955 2955 2955 2955 2955 2955 2955 2955 2980 2980 2980 2980 2980 2980 2980 2955 2955 2955 2955 2955 2980 2980 2980 2980 2980 2980 2980 2980 2980 2980 2980 2980 2980 2980 2955 2955 2980 2980 2980 2980 2980 2980 2980 2980 2980 2955 2980 2980 2980 2980 2955 2980 2980 2980 2980 2930 2930 2930 2930 2930 2930 2930 2930 2930 2930 2930 2930 2930 2955 2955 2955 2930 2955 2955 2955 2930 2930 2930 2930 2930 2930 2930 2955 2955 2955 2955 2955 2955 2980 2980 2980 2955 2955 2955 2955 2930 2930 2930 2955 2930 2955 2955 2955 2955 2955 2955 2930 2955 2955 2930 2930 2930 2955 2955 2955 2955 2955 2955 2955 2980 2955 2955 2955 2955 2955 2955 2930 2955 2955 2955 2955 2980 2980 2980 2980 2955 2955 2930 2930 2930 2930 2930 2955 2930 2930 2930 2930 2930 2930 2930 2905 2905 2930 2930 2930 2905 2905 2905 2930 2955 2930 2930 2930 2955 2930 2930 2930 2930 2930 2905 2930 2905 2905 2905 2930 2930 2930 2930 2930 2955 2955 2980 2980 2980 3006 3006 2980 3006 3006 2980 2980 2955 2955 2955 2955 2930 2955 2955 2955
    0 0 0 0 0 0 0 0 0 0 0 0 0 0 0 0 0 0 0 0 0 0 0 0 0 0 0 0 0 0 0 0 0 0 0 0 0 0 0 0 0 0 0 0 0 0 0 0 0 0 0 0 0 0 0 0 0 0 0 0 0 0 0 0 0 0 0 0 0 0 0 0 0 0 0 0 0 0 0 0 0 0 0 0 0 0 0 0 0 0 0 0 0 0 0 0 0 0 0 0 0 0 0 0 0 0 0 0 0 0 0 0 0 0 0 0 0 0 0 0 0 0 0 0 3006 3033 3033 3033 3033 3006 3006 3033 3033 3033 3006 3033 3033 3033 3033 3006 2980 3006 2980 2980 2955 2980 2980 2955 2980 2980 2980 2955 2980 2955 2955 2955 2955 2955 2955 2955 2955 2980 2955 2955 2955 2955 2955 2955 2955 2955 2955 2955 2955 2955 2955 2955 2955 2955 2955 2955 2955 2955 2955 2955 2955 2955 2955 2955 2955 2930 2955 2955 2955 2955 2955 2955 2955 2955 2955 2955 2955 2980 2980 2980 2955 2955 2955 2955 2955 2955 2955 2955 2955 2955 2955 2955 2955 2955 2955 2955 2955 2980 2980 2980 2980 2955 2955 2955 2955 2955 2955 2930 2930 2955 2955 2955 3006 3006 2980 2980 2980 2955 2955 2955 2930 2930 2955 2955 2955 2955 2955 2955 2955 2980 2955 2955 2955 2955 2955 2955 2955 2955 2955 2980 2980 2980 2980 2980 2980 2980 2980 2980 2980 3006 2082 2082 2069 2057 2045 2033 2021 2009 2009 1998 1998 1986 1986 1986 1975 1975 1975 1964 1964 1964 1952 1952 1952 1952 1941 1941 1941 1941 1941 1941 1931 1931 1931 1931 1931 1931 1931 1931 1920 1920 1920 1920 1909 1909 1920 1899 1899 1899 1899 1899 1909 1899 1888 1899 1888 1888 1899 1899 1888 1899 1899 1899 1899 1899 1899 1899 1899 1888 1888 1899 1888 1888 1888 1888 1888 1888 1888 1888 1888 1888 1899 1899 1888 1899 1888 1888 1888 1899 1888 1899 1899 1909 1909 1909 1920 1920 1920 1909 1920 1920 1920 1920 1920 1931 1931 1931 1931 1931 1931 1931 1941 1941 1941 1941 1952 1952 1964 1964 1964 1964 1975 1975 1975 1975 1975 1975 1998 1998 2009 2021 2033 2045 2045 2057 2045 2057 0 0 0 0 2905 2930 2955 2955 2955 2955 2955 2955 2980 2980 2980 2980 2980 2980 2980 2980 2980 2980 3006 2980 2980 3006 2980 2980 2980 2980 2980 2980 2980 2980 2955 2955 2955 2980 2980 2980 2980 2980 2980 2980 2980 2980 2980 2980 2980 2980 2980 2980 2980 2980 2980 2980 2980 2980 2980 2980 2980 2980 2980 2980 2980 2955 2980 2980 2980 2980 2980 2980 2980 2980 2980 2980 2955 2980 2980 2980 2980 2980 2980 2980 2980 2980 2955 2955 2955 2955 2955 2955 2930 2930 2930 2930 2930 2930 2955 2955 2955 2955 2955 2955 2955 2955 2930 2930 2930 2955 2955 2955 2955 2955 2955 2955 2955 2955 2980 2980 3006 2980 2955 2955 2955 2955 2955 2930 2955 2955 2955 2955 2955 2955 2955 2955 2955 2930 2930 2930 2930 2930 2930 2930 2955 2955 2955 2955 2955 2955 2980 2980 2955 2955 2955 2955 2955 2955 2955 2955 2955 2955 2980 2980 2980 2980 2980 2955 2955 2955 2930 2955 2955 2955 2930 2930 2930 2930 2955 2955 2930 2930 2930 2930 2930 2930 2905 2905 2905 2955 2955 2955 2955 2930 2955 2955 2955 2930 2930 2930 2930 2930 2930 2930 2930 2930 2930 2930 2930 2930 2955 2955 2980 2980 2980 3006 3006 2980 3006 2980 2980 2980 2980 2955 2955 2980 2955 2955 2955 2955
    0 0 0 0 0 0 0 0 0 0 0 0 0 0 0 0 0 0 0 0 0 0 0 0 0 0 0 0 0 0 0 0 0 0 0 0 0 0 0 0 0 0 0 0 0 0 0 0 0 0 0 0 0 0 0 0 0 0 0 0 0 0 0 0 0 0 0 0 0 0 0 0 0 0 0 0 0 0 0 0 0 0 0 0 0 0 0 0 0 0 0 0 0 0 0 0 0 0 0 0 0 0 0 0 0 0 0 0 0 0 0 0 0 0 0 0 0 0 0 0 0 0 0 2980 3033 3033 3033 3033 3033 3033 3033 3033 3033 3033 3033 3033 3033 3033 3033 3006 3006 3006 2980 2955 2955 2955 2980 2980 2980 2980 2980 2980 2980 2980 2980 2955 2955 2955 2955 2955 2955 2980 2980 2955 2955 2955 2955 2980 2980 2980 2980 2980 2980 2980 2980 2980 2955 2955 2955 2955 2955 2980 2955 2955 2955 2955 2955 2955 2955 2955 2955 2955 2955 2955 2955 2955 2980 2980 2980 2980 2980 2980 2980 2980 2980 2955 2955 2955 2955 2955 2955 2955 2955 2955 2955 2955 2955 2980 2980 2980 2980 2980 2980 2980 2980 2980 2980 2980 2980 2980 2980 2955 2955 2980 2980 2980 3006 3006 3006 2980 2980 2955 2955 2955 2955 2955 2955 2955 2955 2980 2955 2955 2980 2980 2955 2955 2980 2955 2955 2955 2955 2955 2980 2980 2980 2980 2980 3006 3006 3006 2980 2980 2980 3006 3006 2082 2069 2057 2045 2045 2033 2021 2009 2009 1998 1986 1986 1986 1975 1975 1975 1975 1964 1964 1964 1952 1952 1952 1952 1941 1941 1941 1941 1941 1931 1931 1931 1931 1931 1931 1931 1931 1920 1920 1920 1920 1909 1920 1920 1909 1899 1899 1899 1899 1909 1899 1899 1899 1899 1899 1899 1899 1899 1899 1899 1899 1899 1899 1899 1899 1899 1899 1899 1899 1888 1888 1888 1888 1888 1888 1888 1888 1888 1888 1899 1899 1899 1899 1888 1888 1888 1899 1899 1899 1909 1909 1909 1909 1920 1920 1920 1920 1920 1920 1920 1920 1920 1920 1931 1931 1931 1931 1931 1941 1941 1941 1941 1952 1952 1952 1964 1964 1964 1975 1975 1975 1975 1986 1975 1998 1998 2009 2009 2021 2033 2045 2057 2057 2057 2057 0 0 0 0 2930 2930 2955 2955 2955 2955 2955 2980 2980 2980 2980 2980 2980 2980 2980 2980 2980 3006 3006 3006 3006 3006 3006 3006 3006 2980 2980 2980 2980 2980 2955 2980 2955 2980 2980 2980 2980 3006 3006 2980 2980 2980 2980 2980 2980 2980 2980 2980 2980 2980 2980 2980 2980 2980 2980 2980 2980 2980 2980 2980 2980 2955 2980 2980 2980 2980 2980 2980 2980 3006 2980 2980 2980 2980 2980 2980 2980 2980 2980 2980 2980 2980 2955 2955 2955 2955 2955 2955 2955 2930 2930 2930 2930 2955 2955 2955 2955 2955 2955 2955 2980 2980 2955 2955 2955 2980 2980 2980 2955 2980 2955 2955 2955 2980 2980 3006 3006 3006 2980 2980 2980 2980 2955 2955 2955 2955 2955 2955 2955 2955 2955 2955 2955 2955 2955 2955 2955 2955 2955 2955 2955 2955 3006 2955 2980 3006 3033 3033 3006 2980 2980 2980 2955 2955 2955 2980 2980 2980 2980 2980 3006 2980 2980 2955 2955 2955 2955 2955 2955 2955 2930 2930 2955 2955 2955 2955 2930 2930 2930 2930 2955 2930 2905 2905 2955 2955 2980 2955 2955 2955 2955 2955 2955 2955 2955 2955 2930 2955 2955 2955 2930 2955 2930 2980 2930 2930 2980 2980 2980 2980 2980 2980 2980 2980 3006 3006 3006 2980 2980 2980 2980 2980 2955 2980 2980 2980
    0 0 0 0 0 0 0 0 0 0 0 0 0 0 0 0 0 0 0 0 0 0 0 0 0 0 0 0 0 0 0 0 0 0 0 0 0 0 0 0 0 0 0 0 0 0 0 0 0 0 0 0 0 0 0 0 0 0 0 0 0 0 0 0 0 0 0 0 0 0 0 0 0 0 0 0 0 0 0 0 0 0 0 0 0 0 0 0 0 0 0 0 0 0 0 0 0 0 0 0 0 0 0 0 0 0 0 0 0 0 0 0 0 0 0 0 0 0 0 0 0 0 0 3033 3033 3033 3033 3033 3033 3033 3033 3033 3033 3033 3033 3033 3033 3033 3033 3006 3006 3006 3006 2980 2980 2980 2980 3006 2980 2980 2980 2980 2980 2980 2980 2980 3006 3006 2980 2980 2980 2980 2980 2980 2980 2980 2980 2980 2980 2980 2980 3006 3006 3006 2980 2980 2980 2980 2980 2980 2980 2980 2980 2955 2955 2955 2955 2955 2955 2955 2955 2955 2955 2955 2955 2955 2980 2980 2980 2980 2980 2980 3006 2980 2980 2980 2955 2955 2955 2955 2955 2955 2955 2955 2955 2980 2980 2980 2980 2980 2980 3006 2980 2980 2980 2980 2980 2980 2980 2980 2980 2955 2955 2980 2980 2980 2980 3006 3006 3006 3006 2980 2980 2980 2980 2955 2980 2980 2980 2980 2980 2980 2980 2980 2980 2980 2980 2980 2980 2980 2980 2980 2980 3006 3006 3006 3006 3006 3006 3006 3006 3006 3006 3006 3006 2082 2082 2057 2045 2045 2033 2021 2021 2009 1998 1998 1986 1986 1986 1975 1975 1975 1975 1964 1964 1952 1952 1952 1952 1941 1941 1941 1941 1941 1941 1941 1931 1931 1931 1931 1931 1931 1931 1920 1920 1920 1909 1920 1920 1909 1909 1899 1909 1899 1909 1909 1899 1909 1899 1899 1899 1899 1899 1899 1899 1899 1899 1899 1899 1899 1899 1899 1899 1899 1899 1888 1888 1888 1888 1888 1899 1899 1888 1899 1899 1899 1899 1899 1899 1888 1899 1899 1899 1909 1909 1909 1909 1909 1920 1920 1920 1920 1920 1920 1920 1920 1920 1920 1931 1931 1931 1931 1931 1941 1941 1941 1952 1952 1952 1964 1964 1964 1964 1975 1975 1975 1975 1986 1986 1998 1998 2009 2009 2021 2033 2045 2057 2069 2057 2057 0 0 0 0 2930 2955 2955 2955 2955 2955 2980 2980 2980 2980 2980 3006 3006 3006 2980 2980 3006 3006 3006 3006 3006 3006 3006 3006 3006 2980 2980 2980 2980 2980 2980 2980 2980 2980 3006 3006 3006 3006 3006 2980 2980 2980 2980 2980 2980 2980 2980 2980 2980 2980 2980 2980 2980 2980 3006 2980 2980 3006 3006 2980 2980 2980 2980 3006 3006 2980 3006 2980 3006 3006 2980 2980 2980 2980 2980 2980 2980 2980 2980 2980 2980 2980 2980 2955 2955 2955 2955 2955 2955 2955 2955 2955 2955 2955 2955 2955 2955 2980 2955 2980 2980 2980 2980 2955 2955 2980 2980 2980 2955 2955 2955 2955 2955 2980 2980 3006 3006 3006 3006 2980 2980 3006 2980 2980 2955 2955 2955 2955 2955 2955 2980 2955 2955 2955 2980 2980 2980 2980 2955 2955 2980 2980 3006 3006 3006 3033 3033 3033 3033 3006 3006 2980 2980 2980 2955 2980 2980 2980 2980 2980 3006 3006 3006 2980 2955 2955 2955 2955 2955 2955 2930 2955 2955 2955 2980 2955 2955 2930 2930 2930 2955 2955 2930 2930 2930 2955 2955 2955 2955 2955 2980 2980 2955 2980 2980 2955 2955 2955 2955 2980 2955 2980 3006 3006 2980 2980 2980 2980 2980 2980 2980 3006 3006 2980 3006 3006 3006 3006 3006 2980 2980 2980 2955 2980 2955 2980
    0 0 0 0 0 0 0 0 0 0 0 0 0 0 0 0 0 0 0 0 0 0 0 0 0 0 0 0 0 0 0 0 0 0 0 0 0 0 0 0 0 0 0 0 0 0 0 0 0 0 0 0 0 0 0 0 0 0 0 0 0 0 0 0 0 0 0 0 0 0 0 0 0 0 0 0 0 0 0 0 0 0 0 0 0 0 0 0 0 0 0 0 0 0 0 0 0 0 0 0 0 0 0 0 0 0 0 0 0 0 0 0 0 0 0 0 0 0 0 0 0 0 3006 3033 3033 3033 3033 3033 3033 3033 3033 3033 3033 3033 3033 3033 3033 3033 3033 3006 3006 3006 3006 2980 3006 2980 3006 3006 3006 2980 2980 2980 3006 2980 3006 2980 2980 3033 2980 2980 2980 2980 2980 2980 2980 2980 2980 2980 3006 3006 3006 3006 3006 3006 3006 3006 2980 2980 3006 2980 2980 2980 2980 2955 2980 2980 2955 2955 2955 2955 2955 2955 2955 2955 2955 2955 2980 2980 2980 2980 2980 2980 3006 3006 2980 2980 2955 2955 2955 2955 2955 2955 2955 2955 2980 2980 2980 2980 2980 2980 3006 3006 3006 2980 3006 2980 2980 3006 3006 3006 3006 2980 2980 3006 3006 3006 2980 3006 3006 3006 2980 2980 2980 3006 2980 2980 2980 2980 2980 2980 2980 2980 2980 3006 2980 2980 2980 3006 2980 2980 2980 2980 3006 3006 3006 3006 3006 3006 3006 3006 3006 3006 3006 3006 3006 2082 2069 2057 2045 2045 2033 2021 2021 2021 1998 1986 1986 1986 1986 1975 1975 1975 1975 1975 1975 1964 1964 1964 1952 1952 1941 1941 1941 1941 1941 1941 1931 1931 1931 1931 1931 1931 1931 1931 1920 1920 1920 1920 1920 1909 1909 1909 1909 1909 1909 1909 1909 1909 1899 1899 1899 1899 1899 1899 1899 1899 1899 1899 1899 1899 1899 1899 1899 1899 1899 1888 1888 1888 1888 1888 1899 1899 1899 1899 1899 1909 1899 1899 1899 1899 1899 1909 1899 1909 1909 1920 1920 1920 1920 1920 1920 1920 1920 1920 1920 1931 1931 1931 1931 1931 1931 1931 1931 1941 1952 1952 1952 1952 1964 1964 1964 1964 1964 1975 1975 1975 1986 1986 1986 1998 1998 2009 2009 2021 2033 2045 2057 2069 2057 2057 0 0 0 0 2955 2955 2980 2980 2980 2980 3006 2980 3006 2980 3006 3006 3006 3006 3006 3006 3006 3006 3006 3006 3006 3006 3006 3006 3006 3006 2980 2980 2980 2980 2980 2980 2980 2980 3033 3033 3006 3006 3006 3006 3006 3006 2980 2980 2980 2980 2980 2980 2980 2980 2980 2980 3006 2980 3006 3006 3006 3006 3006 3006 3006 3006 3006 3006 3006 3006 3006 2980 2980 3006 2980 2980 2980 2980 2980 3033 2980 2980 2980 2980 3006 3006 2955 2955 2955 2955 2955 2955 2955 2955 2955 2955 2955 2955 2955 2980 2980 2980 2980 3006 3006 3006 2980 3006 2980 2980 2980 2980 2980 2980 2980 2980 2980 2980 3006 3006 3033 3033 3033 3006 3033 3033 2980 2980 2955 2955 2955 2955 2980 2955 2955 2980 2955 2955 2980 2980 2980 2980 2980 2955 2980 3033 3033 3033 3006 3033 3033 3006 3006 3006 3006 3006 2980 2980 2955 2980 2980 2980 2980 2980 3006 3006 3006 2980 2955 2955 2955 2955 2955 2955 2930 2955 2955 2980 2980 2955 2955 2955 2955 2955 2955 2955 2930 2930 2930 2955 2955 2955 2980 2980 3006 2980 2980 2980 2980 2980 2980 2955 2955 2980 2955 2980 3006 3006 2980 2980 2980 2980 2980 2980 2980 2980 2980 2980 3006 3006 3006 3006 3006 2980 2980 2980 2955 2955 2955 2955
    0 0 0 0 0 0 0 0 0 0 0 0 0 0 0 0 0 0 0 0 0 0 0 0 0 0 0 0 0 0 0 0 0 0 0 0 0 0 0 0 0 0 0 0 0 0 0 0 0 0 0 0 0 0 0 0 0 0 0 0 0 0 0 0 0 0 0 0 0 0 0 0 0 0 0 0 0 0 0 0 0 0 0 0 0 0 0 0 0 0 0 0 0 0 0 0 0 0 0 0 0 0 0 0 0 0 0 0 0 0 0 0 0 0 0 0 0 0 0 0 0 3006 3006 3033 3033 3033 3033 3033 3033 3033 3059 3059 3059 3059 3059 3059 3059 3059 3033 3033 3006 3033 3033 3006 3006 3006 3006 3006 3006 2980 3006 3006 3006 2980 3006 3006 3006 3006 3006 3006 2980 3006 3006 3006 3006 2980 2980 3006 3006 3006 3006 3006 3006 3033 3006 3006 3006 3006 3006 3006 3006 3006 2980 2955 2980 2980 2955 2980 2955 2955 2955 2955 2955 2955 2955 2955 2980 2955 2980 2980 2980 2980 3006 3006 3006 3006 2980 2980 2980 2980 2980 2980 2980 2955 2980 2980 2980 2980 2980 3006 3006 3006 3006 3006 3006 3006 2980 3006 3006 3006 3006 2980 3006 3006 3006 3006 3006 3006 3006 3006 3006 2980 2980 3006 2980 2980 2980 3006 2980 3006 3006 3006 3006 3006 3006 3006 3006 3006 3006 2980 3006 3006 3006 3006 3006 3006 3006 3006 3006 3006 3006 3033 3006 3033 3006 2082 2069 2069 2057 2045 2045 2033 2021 2021 1998 1986 1986 1986 1986 1975 1975 1975 1975 1975 1975 1964 1964 1964 1952 1952 1941 1941 1941 1941 1941 1941 1931 1941 1941 1941 1931 1931 1931 1931 1931 1931 1920 1920 1920 1909 1909 1920 1909 1909 1920 1909 1909 1909 1909 1899 1899 1899 1899 1899 1899 1899 1899 1899 1899 1899 1899 1899 1899 1899 1899 1888 1888 1888 1888 1888 1888 1888 1888 1888 1899 1899 1899 1909 1899 1899 1909 1909 1909 1909 1909 1920 1920 1920 1920 1920 1920 1920 1920 1920 1931 1931 1931 1931 1931 1931 1941 1941 1941 1941 1952 1952 1952 1952 1964 1964 1964 1964 1975 1975 1975 1986 1986 1998 1998 1998 2009 2009 2009 2021 2033 2045 2057 2057 2057 2057 0 0 0 0 2955 2980 2980 2980 2980 2980 2980 3006 3006 2980 2980 3033 3033 3033 3033 3006 3006 3033 3033 3006 3006 3006 3006 3006 3006 3006 2980 3006 3006 2980 2980 3006 3006 3006 3006 3033 3006 3033 3033 3006 3006 3006 3006 3006 2980 3006 2980 2980 2980 2980 2980 2980 3006 2980 3006 3006 3006 3006 3033 3006 3006 3006 3006 3006 3006 3006 3006 3006 3006 3006 3006 3006 2980 2980 3033 3033 3033 3006 3006 3006 3006 3006 2955 2955 2955 2955 2955 2955 2955 2955 2955 2955 2955 2955 2955 2980 2980 2980 2980 3006 3006 3006 3006 3006 3006 3006 3006 3006 2980 2980 2980 3006 2980 3006 3006 3006 3033 3033 3033 3033 3033 3006 3006 3006 2980 2980 2980 2980 2980 2980 2980 2980 2980 2980 2980 2980 2980 3006 2980 2980 3006 3033 3033 3033 3033 3033 3033 3033 3006 3006 3006 3006 2980 2980 2980 2980 2980 2980 2980 3006 3006 3006 3006 2980 2980 2955 2955 2955 2955 2955 2955 2955 2955 2980 2980 2980 2980 2955 2955 2955 2980 2980 2955 2955 2955 2980 2980 2980 3006 3006 3006 3006 3006 3006 3006 2980 3006 2980 2980 3006 3006 3006 3006 3006 3006 3006 3006 2980 3006 2980 3006 3006 3006 3006 3033 3033 3033 3006 3006 3006 2980 3006 2980 2980 2955 2955
    0 0 0 0 0 0 0 0 0 0 0 0 0 0 0 0 0 0 0 0 0 0 0 0 0 0 0 0 0 0 0 0 0 0 0 0 0 0 0 0 0 0 0 0 0 0 0 0 0 0 0 0 0 0 0 0 0 0 0 0 0 0 0 0 0 0 0 0 0 0 0 0 0 0 0 0 0 0 0 0 0 0 0 0 0 0 0 0 0 0 0 0 0 0 0 0 0 0 0 0 0 0 0 0 0 0 0 0 0 0 0 0 0 0 0 0 0 0 0 0 0 3006 3033 3033 3033 3033 3033 3033 3033 3059 3059 3059 3059 3059 3059 3059 3059 3059 3033 3033 3033 3033 3033 3006 3006 3006 3006 3006 3006 3006 3006 3006 3006 2980 3006 3033 3033 3033 3033 3006 2980 3006 3006 3006 3006 3006 3033 3006 3033 3033 3006 3006 3006 3033 3033 3033 3006 3006 3006 3006 3006 3006 3006 2955 2980 2980 2955 2980 2955 2955 2980 2980 2980 2980 2980 2980 2980 2980 2980 2980 2980 3006 3006 3006 3006 3006 2980 2980 2980 2980 2980 2980 2980 2980 3006 3006 3033 3006 3006 3006 3006 3033 3033 3033 3033 3006 3006 3033 3033 3033 3033 3006 3006 3006 3006 3006 3006 3006 3006 3006 3006 3006 3006 3006 3006 3006 3006 3006 3006 3006 3006 3006 3006 3006 3006 3006 3006 3006 3006 3006 3006 3006 3006 3006 3033 3006 3006 3006 3006 3006 3033 3033 3033 3033 3033 3033 2082 2069 2057 2045 2033 2021 2021 2021 2021 2009 2009 1986 1986 1986 1975 1975 1975 1975 1975 1975 1964 1964 1964 1964 1952 1952 1952 1952 1941 1941 1941 1941 1941 1941 1931 1931 1931 1931 1931 1931 1931 1931 1931 1909 1909 1920 1920 1920 1920 1920 1920 1920 1920 1909 1909 1909 1899 1899 1899 1899 1899 1899 1909 1909 1899 1899 1899 1899 1899 1899 1888 1888 1899 1888 1888 1899 1899 1899 1899 1899 1899 1909 1909 1909 1909 1909 1909 1920 1920 1920 1920 1920 1920 1920 1920 1920 1920 1931 1931 1931 1931 1931 1931 1931 1941 1941 1941 1941 1952 1952 1952 1952 1964 1964 1964 1964 1975 1975 1975 1986 1986 1998 1998 1998 2009 2009 2009 2021 2033 2057 2057 2069 2057 2069 0 0 0 0 0 2955 2980 2980 3006 3006 3006 3006 3006 3006 3033 3033 3033 3033 3033 3033 3033 3033 3033 3033 3006 3006 3006 3006 3006 3006 3006 3006 3006 2980 3006 3006 3006 3033 3033 3033 3033 3033 3033 3033 3033 3006 3006 3033 3033 3006 3006 3006 3006 3006 3006 3006 3006 3006 3006 3006 3006 3006 3033 3006 3006 3006 3006 3006 3006 3006 3006 3006 3006 3006 3006 3006 2980 2980 3033 3033 3033 3006 3006 3006 3006 3006 2955 2955 2955 2955 2955 2955 2955 2955 2955 2955 2955 2955 2980 2980 3006 3006 2980 3006 3006 3006 3006 3033 3033 3006 3033 3033 3006 3006 3006 3006 2980 3006 3006 3033 3033 3033 3033 3033 3033 3033 3006 3006 3006 3006 2980 2980 2980 2980 2980 3006 2980 2980 3006 3006 3006 3006 3006 2980 3006 3033 3033 3033 3033 3033 3033 3006 3006 3006 3006 3006 3006 3006 2980 2980 3006 3006 3006 3006 3033 3033 3033 3006 3006 2980 2980 2980 2980 2955 2955 2955 2955 2980 2980 2980 2980 2980 2980 2980 2980 2980 2955 2980 2980 2980 2980 2980 3006 3006 3006 3006 3006 3006 3006 3006 3006 3006 2980 3006 2980 3006 3006 3006 3006 3006 3006 3006 3006 3006 3006 2980 3006 3006 3006 3033 3033 3033 3006 3006 3006 3006 2980 2980 2980 2980
    0 0 0 0 0 0 0 0 0 0 0 0 0 0 0 0 0 0 0 0 0 0 0 0 0 0 0 0 0 0 0 0 0 0 0 0 0 0 0 0 0 0 0 0 0 0 0 0 0 0 0 0 0 0 0 0 0 0 0 0 0 0 0 0 0 0 0 0 0 0 0 0 0 0 0 0 0 0 0 0 0 0 0 0 0 0 0 0 0 0 0 0 0 0 0 0 0 0 0 0 0 0 0 0 0 0 0 0 0 0 0 0 0 0 0 0 0 0 0 0 0 3033 3033 3033 3033 3033 3059 3059 3059 3033 3059 3059 3059 3059 3059 3059 3059 3059 3059 3033 3033 3033 3033 3006 3006 3006 3006 3006 3006 3006 3006 3006 3006 3006 3033 3033 3033 3033 3033 3006 3006 3006 3006 3006 3033 3033 3033 3033 3033 3033 3033 3033 3033 3033 3033 3033 3006 3006 3006 3006 3006 3006 3006 2955 2980 2980 2980 3006 2980 2980 3006 3006 2980 3006 3006 2980 2980 2980 2980 2980 3006 3006 3006 3006 3006 3006 3006 3006 3006 3006 3006 2980 2980 2980 3033 3033 3033 3033 3033 3006 3033 3033 3033 3033 3033 3033 3033 3059 3033 3033 3033 3006 3006 3033 3033 3006 3006 3033 3006 3033 3033 3033 3006 3033 3006 3006 3006 3006 3006 3006 3006 3033 3006 3006 3033 3033 3033 3033 3033 3006 3033 3006 3033 3033 3033 3006 3006 3006 3033 3033 3033 3033 3033 3033 3033 3033 2082 2069 2069 2057 2033 2021 2021 2021 2009 2009 2009 1998 1986 1986 1986 1986 1975 1975 1975 1975 1964 1964 1964 1964 1964 1952 1952 1952 1952 1952 1941 1941 1941 1941 1941 1931 1941 1941 1931 1931 1931 1931 1931 1909 1920 1909 1920 1920 1920 1920 1920 1920 1920 1909 1909 1909 1909 1909 1899 1899 1909 1909 1909 1909 1909 1909 1899 1909 1899 1899 1888 1888 1899 1899 1899 1899 1899 1899 1899 1899 1899 1909 1909 1920 1920 1920 1920 1920 1920 1920 1920 1920 1920 1920 1920 1931 1931 1931 1931 1931 1931 1931 1931 1931 1941 1941 1941 1952 1952 1952 1964 1964 1964 1964 1964 1964 1964 1975 1975 1975 1986 1998 1998 2009 2009 2009 2021 2033 2033 2057 2057 2069 2057 2057 0 0 0 0 0 2980 2980 3006 3033 3006 3033 3033 3059 3033 3033 3059 3059 3059 3059 3033 3033 3033 3033 3033 3033 3033 3033 3033 3033 3006 3006 3006 3006 3006 3033 3033 3033 3033 3033 3033 3033 3033 3033 3033 3033 3059 3059 3059 3059 3059 3033 3033 3033 3033 3006 3006 3033 3006 3006 3006 3006 3033 3033 3006 3006 3006 3006 3006 3006 3006 3006 3006 3006 3006 3006 3006 3006 3006 3033 3059 3059 3006 3006 3006 3033 3033 2980 2955 2980 2980 2980 2955 2955 2955 2955 2955 2955 2955 2980 3006 3006 3006 3006 3006 3006 3006 3033 3033 3033 3033 3033 3033 3006 3006 3006 3006 2980 2980 3006 3033 3033 3033 3033 3033 3033 3033 3033 3006 3006 3006 3006 2980 2980 3006 3006 3006 2980 2980 3006 3006 3006 3006 3006 2980 3006 2980 3033 2980 3033 3006 3033 3033 3033 3033 3033 3033 3006 3006 3006 2980 3006 3006 3006 3006 3033 3033 3033 3006 3006 3006 3006 3006 3006 3006 2955 2980 2980 2980 2980 2980 2980 2980 2980 2980 2980 2980 2955 2955 2980 2980 3006 3006 3006 3006 3006 3006 3006 3006 3006 2980 2980 3006 3006 3006 3006 3006 3006 3006 3006 3006 3006 3006 3006 3006 3006 2980 3006 3006 3006 3033 3033 3033 3006 3006 3006 3006 3006 3006 3006 3006
    0 0 0 0 0 0 0 0 0 0 0 0 0 0 0 0 0 0 0 0 0 0 0 0 0 0 0 0 0 0 0 0 0 0 0 0 0 0 0 0 0 0 0 0 0 0 0 0 0 0 0 0 0 0 0 0 0 0 0 0 0 0 0 0 0 0 0 0 0 0 0 0 0 0 0 0 0 0 0 0 0 0 0 0 0 0 0 0 0 0 0 0 0 0 0 0 0 0 0 0 0 0 0 0 0 0 0 0 0 0 0 0 0 0 0 0 0 0 0 0 3033 3033 3033 3059 3059 3059 3059 3059 3059 3059 3059 3059 3059 3059 3059 3059 3059 3059 3059 3033 3033 3059 3059 3006 3033 3033 3006 3006 3006 3006 3006 3006 3006 3006 3033 3033 3033 3033 3033 3006 3006 3006 3006 3006 3033 3033 3033 3033 3033 3033 3033 3033 3033 3033 3033 3033 3033 3033 3033 3033 3006 3033 3006 2955 2980 2980 2980 2980 2980 2980 3006 3006 2980 3006 3006 2980 2980 2980 2980 2980 3006 3006 3006 3006 3006 3006 3006 3006 3006 3006 3033 3006 3006 3006 3033 3033 3033 3033 3033 3033 3033 3033 3033 3033 3033 3033 3033 3059 3059 3033 3059 3033 3033 3033 3033 3006 3033 3033 3033 3006 3006 3006 3006 3006 3006 3006 3006 3006 3006 3033 3033 3033 3033 3033 3033 3033 3033 3033 3033 3033 3033 3033 3033 3033 3033 3033 3033 3006 3033 3033 3033 3033 3033 3033 3033 3033 2082 2082 2082 2057 2033 2021 2021 2021 2021 2009 2009 1998 1986 1986 1986 1986 1975 1975 1975 1975 1964 1964 1964 1964 1964 1964 1964 1952 1952 1952 1941 1941 1941 1941 1941 1941 1941 1941 1941 1931 1941 1941 1941 1920 1920 1920 1920 1920 1920 1920 1920 1920 1920 1909 1909 1909 1909 1909 1909 1899 1909 1909 1909 1909 1909 1899 1899 1909 1899 1899 1899 1899 1899 1899 1899 1899 1899 1899 1899 1909 1909 1909 1920 1920 1920 1920 1920 1920 1920 1920 1920 1920 1920 1920 1920 1931 1931 1931 1931 1931 1931 1931 1931 1941 1941 1941 1941 1952 1952 1952 1964 1952 1964 1964 1964 1964 1964 1975 1975 1975 1986 1998 1998 2009 2009 2009 2021 2021 2033 2045 2045 2057 2057 2057 0 0 0 0 0 2980 3006 3033 3033 3033 3033 3059 3059 3059 3059 3059 3059 3059 3059 3059 3033 3059 3059 3059 3059 3033 3033 3033 3033 3033 3033 3033 3033 3033 3059 3059 3059 3059 3059 3033 3033 3059 3033 3033 3059 3059 3059 3059 3059 3059 3059 3033 3033 3033 3033 3033 3033 3033 3033 3006 3033 3033 3033 3006 3006 3006 3006 3006 3006 3033 3006 3006 3006 3033 3033 3033 3006 3006 3059 3059 3059 3033 3033 3006 3033 3033 3006 2980 2980 3033 3033 3006 2980 2980 2980 2980 2980 2980 3006 3006 3033 3006 3006 3006 3006 3033 3033 3033 3033 3033 3033 3033 3033 3033 3006 3006 3006 3006 3006 3033 3033 3033 3033 3033 3033 3033 3033 3033 3006 3006 3006 3006 3006 3006 3006 3006 3006 3006 3006 3006 3006 3006 3006 3006 3006 3033 3059 3059 3059 3059 3033 3033 3033 3033 3033 3033 3033 3033 3006 3006 2980 3006 3006 3006 3033 3033 3033 3006 3033 3006 3033 3033 3006 3006 2980 2980 2980 3006 3006 3006 2980 2980 3006 3006 3006 3006 3006 3006 3006 3006 3006 3006 3033 3006 3006 3006 3006 3006 3006 2980 3006 3006 3006 3006 3006 3006 3006 3006 3006 3006 3006 3006 3006 3006 3006 2980 3006 3006 3006 3006 3006 3006 3006 3033 3006 3006 3006 3033 3033 3033
    0 0 0 0 0 0 0 0 0 0 0 0 0 0 0 0 0 0 0 0 0 0 0 0 0 0 0 0 0 0 0 0 0 0 0 0 0 0 0 0 0 0 0 0 0 0 0 0 0 0 0 0 0 0 0 0 0 0 0 0 0 0 0 0 0 0 0 0 0 0 0 0 0 0 0 0 0 0 0 0 0 0 0 0 0 0 0 0 0 0 0 0 0 0 0 0 0 0 0 0 0 0 0 0 0 0 0 0 0 0 0 0 0 0 0 0 0 0 0 0 0 3059 3059 3059 3059 3059 3059 3059 3059 3059 3059 3059 3087 3087 3087 3059 3059 3059 3059 3059 3059 3059 3033 3033 3033 3033 3033 3033 3006 3006 3006 3006 3006 3006 3033 3033 3033 3033 3033 3006 3006 3006 3006 3033 3033 3033 3033 3033 3033 3033 3033 3033 3033 3033 3033 3033 3033 3033 3033 3033 3033 3006 3033 2980 3006 3006 3006 3006 2980 3006 3006 3006 3006 3006 3006 2980 3006 3006 3006 2980 3006 3006 3006 3006 3033 3033 3033 3033 3033 3033 3033 3033 3033 3033 3033 3059 3033 3033 3033 3033 3033 3033 3033 3033 3033 3033 3033 3059 3059 3033 3059 3033 3033 3033 3033 3033 3033 3033 3033 3033 3033 3033 3033 3033 3033 3033 3033 3033 3033 3033 3033 3033 3033 3033 3033 3033 3033 3033 3033 3033 3033 3033 3033 3033 3033 3033 3033 3033 3059 3059 3059 3059 3033 3059 3033 3033 3033 2082 2082 2069 2033 2033 2033 2021 2021 2009 2009 1998 1986 1986 1986 1986 1986 1975 1975 1975 1975 1964 1964 1964 1975 1964 1964 1964 1964 1952 1952 1952 1941 1941 1941 1941 1941 1941 1941 1941 1941 1941 1941 1920 1920 1920 1920 1920 1920 1920 1920 1920 1920 1920 1920 1920 1909 1909 1909 1909 1909 1909 1909 1920 1909 1909 1909 1909 1909 1899 1899 1899 1909 1909 1909 1909 1899 1909 1909 1909 1909 1920 1920 1920 1920 1920 1931 1931 1931 1931 1931 1931 1931 1931 1931 1931 1931 1931 1931 1931 1931 1931 1931 1941 1941 1941 1941 1952 1952 1952 1964 1964 1964 1964 1964 1964 1975 1975 1975 1975 1986 1998 1998 2009 2021 2021 2021 2033 2033 2045 2057 2069 2057 0 0 0 0 0 0 3006 3033 3033 3059 3033 3059 3059 3059 3059 3059 3059 3059 3059 3059 3059 3033 3059 3059 3059 3059 3059 3033 3059 3059 3059 3059 3059 3059 3033 3059 3059 3059 3059 3059 3033 3033 3059 3033 3033 3059 3059 3059 3087 3059 3059 3059 3033 3059 3059 3033 3033 3059 3033 3033 3033 3033 3033 3033 3033 3033 3033 3033 3033 3033 3033 3006 3006 3006 3033 3033 3059 3059 3033 3059 3059 3059 3059 3059 3033 3033 3033 3006 2980 3006 3006 3006 3033 2980 3033 3033 3006 3033 3033 3006 3033 3033 3033 3006 3033 3033 3033 3033 3033 3033 3033 3033 3033 3033 3033 3006 3006 3006 3006 3006 3033 3033 3033 3059 3033 3033 3033 3033 3033 3006 3006 3006 3006 3006 3006 3006 3006 3006 3006 3006 3033 3033 3033 3033 3006 3033 3033 3059 3059 3059 3059 3059 3059 3033 3033 3033 3033 3033 3033 3006 3006 3006 3006 3033 3033 3033 3033 3033 3033 3033 3006 3006 3033 3006 3006 2980 3006 2980 3006 3006 3006 2980 3006 3006 3006 3006 3006 3006 3006 3006 3006 3033 3033 3033 3006 3006 3006 3006 3006 3006 3006 3006 3006 3006 3006 3006 3006 3006 3006 3033 3006 3006 3006 3006 3006 3006 2980 3006 3006 3006 3006 3006 3006 3006 3033 3033 3033 3033 3033 3006 3033
    0 0 0 0 0 0 0 0 0 0 0 0 0 0 0 0 0 0 0 0 0 0 0 0 0 0 0 0 0 0 0 0 0 0 0 0 0 0 0 0 0 0 0 0 0 0 0 0 0 0 0 0 0 0 0 0 0 0 0 0 0 0 0 0 0 0 0 0 0 0 0 0 0 0 0 0 0 0 0 0 0 0 0 0 0 0 0 0 0 0 0 0 0 0 0 0 0 0 0 0 0 0 0 0 0 0 0 0 0 0 0 0 0 0 0 0 0 0 0 0 3033 3059 3059 3059 3059 3059 3059 3059 3059 3059 3059 3087 3087 3087 3087 3087 3059 3059 3059 3059 3059 3059 3059 3033 3033 3033 3033 3033 3033 3033 3006 3006 3006 3006 3033 3033 3033 3033 3033 3006 3006 3033 3033 3033 3033 3033 3059 3059 3059 3033 3033 3033 3033 3033 3033 3033 3033 3033 3033 3033 3033 3033 3033 3033 3033 3033 3033 3006 3006 3006 3006 3006 3006 3006 3006 3006 3006 3006 3006 3006 3033 3033 3033 3033 3033 3033 3033 3059 3059 3033 3033 3033 3033 3033 3033 3033 3033 3033 3033 3033 3033 3059 3059 3033 3033 3033 3059 3059 3059 3059 3059 3033 3033 3033 3033 3033 3033 3033 3033 3033 3033 3033 3033 3033 3033 3033 3033 3033 3033 3033 3033 3033 3033 3033 3033 3033 3033 3033 3033 3033 3033 3033 3033 3059 3033 3033 3033 3033 3059 3087 3059 3059 3033 3059 3033 3033 3033 2082 2082 2069 2033 2033 2033 2021 2021 2009 2009 2009 1998 1998 1986 1986 1986 1986 1986 1975 1975 1964 1975 1975 1975 1964 1964 1964 1964 1964 1952 1952 1941 1941 1941 1941 1941 1941 1941 1941 1941 1941 1941 1931 1920 1920 1920 1920 1920 1920 1920 1920 1920 1920 1920 1920 1920 1920 1920 1909 1920 1920 1920 1920 1920 1909 1909 1909 1909 1909 1909 1909 1909 1920 1920 1909 1909 1909 1909 1909 1909 1920 1920 1920 1920 1920 1931 1931 1931 1931 1931 1931 1931 1931 1931 1931 1931 1931 1931 1931 1931 1941 1941 1941 1952 1952 1952 1964 1964 1964 1964 1964 1964 1964 1975 1975 1975 1975 1975 1986 2009 2009 2009 2009 2021 2021 2021 2033 2033 2057 2057 2069 2057 0 0 0 0 0 3033 3033 3033 3059 3033 3059 3059 3059 3059 3059 3059 3059 3059 3059 3059 3059 3059 3059 3059 3059 3059 3059 3059 3059 3059 3059 3059 3059 3059 3059 3059 3059 3059 3059 3059 3033 3059 3059 3059 3087 3087 3087 3087 3087 3087 3059 3059 3059 3059 3059 3059 3059 3059 3059 3033 3033 3059 3033 3033 3033 3033 3033 3033 3033 3033 3033 3033 3033 3033 3033 3059 3059 3059 3059 3059 3059 3059 3059 3059 3059 3059 3033 3033 2980 2980 3006 3006 3006 3006 3006 3006 3006 3006 3033 3033 3033 3033 3033 3033 3033 3033 3033 3033 3033 3033 3033 3033 3033 3033 3033 3033 3006 3006 3006 3033 3033 3033 3059 3059 3059 3059 3059 3033 3033 3033 3033 3006 3006 3006 3006 3006 3006 3006 3006 3006 3006 3006 3006 3033 3033 3033 3033 3059 3059 3059 3059 3059 3059 3059 3059 3033 3033 3033 3033 3006 3006 3006 3006 3033 3033 3033 3033 3033 3033 3033 3033 3033 3033 3006 3033 3006 3006 3006 3006 3006 3006 3006 3006 3006 3006 3006 3006 3006 3006 3006 3006 3033 3033 3033 3006 3006 3006 3033 3006 3006 3006 3006 3006 3006 3033 3006 3006 3033 3033 3033 3033 3006 3006 3033 3006 3006 3006 3006 3006 3033 3033 3033 3033 3033 3033 3033 3033 3033 3033 3033 3033
    0 0 0 0 0 0 0 0 0 0 0 0 0 0 0 0 0 0 0 0 0 0 0 0 0 0 0 0 0 0 0 0 0 0 0 0 0 0 0 0 0 0 0 0 0 0 0 0 0 0 0 0 0 0 0 0 0 0 0 0 0 0 0 0 0 0 0 0 0 0 0 0 0 0 0 0 0 0 0 0 0 0 0 0 0 0 0 0 0 0 0 0 0 0 0 0 0 0 0 0 0 0 0 0 0 0 0 0 0 0 0 0 0 0 0 0 0 0 0 0 3059 3059 3059 3059 3087 3059 3087 3087 3087 3087 3087 3087 3087 3087 3087 3087 3087 3087 3059 3059 3059 3059 3059 3033 3033 3033 3033 3033 3033 3033 3033 3033 3033 3033 3033 3033 3033 3033 3033 3033 3006 3033 3033 3033 3033 3033 3059 3059 3059 3059 3059 3033 3033 3033 3033 3033 3033 3033 3033 3033 3033 3033 3059 3033 3033 3033 3033 3033 3006 3033 3033 3033 3033 3033 3033 3033 3033 3033 3033 3006 3033 3033 3033 3033 3059 3059 3059 3059 3059 3059 3033 3033 3033 3033 3033 3059 3059 3033 3059 3033 3033 3059 3059 3059 3059 3059 3059 3059 3059 3059 3087 3059 3059 3033 3059 3033 3033 3033 3033 3033 3033 3033 3033 3033 3033 3033 3033 3033 3033 3033 3033 3033 3033 3033 3059 3059 3059 3033 3059 3059 3059 3059 3059 3059 3059 3087 3087 3087 3087 3087 3087 3059 3033 3059 3059 3033 3033 2082 2082 2069 2069 2033 2033 2033 2033 2021 2021 2009 1998 2009 1986 1986 1986 1986 1986 1986 1975 1975 1975 1975 1975 1975 1975 1964 1964 1964 1952 1952 1941 1941 1941 1941 1941 1941 1941 1941 1941 1941 1941 1931 1920 1920 1920 1920 1920 1920 1920 1920 1920 1920 1920 1920 1920 1920 1920 1920 1920 1920 1920 1920 1920 1920 1920 1920 1920 1909 1909 1909 1909 1909 1909 1909 1909 1909 1909 1909 1909 1920 1920 1920 1920 1931 1931 1931 1931 1931 1931 1931 1931 1931 1931 1931 1931 1931 1941 1941 1941 1941 1941 1952 1952 1952 1952 1964 1964 1964 1964 1964 1964 1964 1975 1975 1975 1975 1986 1986 2009 2009 2009 2009 2021 2021 2021 2033 2033 2045 2057 2069 0 0 0 0 0 0 3059 3059 3059 3059 3059 3059 3059 3059 3059 3059 3059 3059 3059 3059 3059 3059 3059 3059 3059 3059 3059 3059 3059 3059 3059 3059 3059 3059 3059 3059 3059 3059 3059 3059 3059 3059 3059 3059 3059 3059 3059 3059 3059 3059 3059 3059 3059 3059 3059 3059 3059 3059 3059 3059 3059 3059 3059 3059 3033 3033 3033 3033 3033 3033 3033 3059 3033 3033 3033 3059 3059 3059 3059 3059 3059 3059 3087 3059 3087 3087 3087 3087 3059 3006 3006 3033 3033 3033 3006 3006 3033 3033 3033 3033 3033 3033 3033 3033 3033 3033 3059 3033 3033 3033 3033 3033 3033 3033 3033 3033 3033 3033 3033 3033 3033 3033 3033 3059 3059 3033 3033 3033 3033 3033 3033 3033 3033 3033 3006 3006 3006 3033 3006 3006 3006 3033 3033 3033 3033 3033 3033 3033 3059 3033 3033 3059 3059 3059 3059 3059 3033 3033 3033 3033 3006 3006 3006 3033 3033 3033 3033 3033 3033 3033 3033 3033 3033 3033 3033 3033 3006 3006 3006 3006 3006 3006 3006 3006 3006 3006 3033 3006 3006 3006 3006 3033 3033 3033 3033 3033 3033 3033 3033 3006 3006 3006 3006 3006 3006 3033 3006 3033 3033 3033 3033 3033 3033 3006 3033 3033 3006 3006 3006 3006 3033 3033 3033 3033 3033 3059 3059 3059 3059 3059 3033 3033
    0 0 0 0 0 0 0 0 0 0 0 0 0 0 0 0 0 0 0 0 0 0 0 0 0 0 0 0 0 0 0 0 0 0 0 0 0 0 0 0 0 0 0 0 0 0 0 0 0 0 0 0 0 0 0 0 0 0 0 0 0 0 0 0 0 0 0 0 0 0 0 0 0 0 0 0 0 0 0 0 0 0 0 0 0 0 0 0 0 0 0 0 0 0 0 0 0 0 0 0 0 0 0 0 0 0 0 0 0 0 0 0 0 0 0 0 0 0 0 0 3059 3087 3087 3087 3087 3087 3087 3087 3087 3087 3087 3087 3087 3087 3087 3087 3087 3087 3087 3059 3087 3059 3059 3033 3033 3033 3033 3033 3033 3033 3033 3033 3033 3033 3033 3033 3033 3033 3033 3033 3033 3033 3033 3033 3059 3059 3059 3059 3059 3059 3033 3033 3033 3033 3033 3033 3033 3033 3033 3033 3033 3059 3059 3059 3059 3059 3033 3033 3033 3033 3033 3033 3033 3033 3033 3033 3033 3033 3033 3033 3033 3033 3033 3059 3059 3059 3059 3059 3059 3059 3059 3059 3059 3059 3059 3059 3059 3059 3059 3059 3059 3059 3059 3059 3059 3059 3059 3059 3087 3087 3087 3059 3059 3059 3059 3059 3033 3059 3033 3033 3033 3059 3059 3033 3033 3033 3033 3033 3033 3033 3033 3033 3033 3033 3033 3059 3059 3059 3059 3059 3059 3059 3059 3059 3087 3087 3087 3087 3087 3087 3087 3087 3059 3059 3059 3087 3059 3087 2082 2069 2069 2033 2033 2033 2033 2021 2021 2009 1998 2009 1986 1998 1986 1986 1986 1986 1986 1975 1975 1975 1975 1975 1975 1964 1964 1964 1964 1952 1952 1952 1941 1941 1952 1941 1941 1941 1941 1941 1941 1931 1920 1920 1920 1920 1920 1920 1920 1920 1931 1920 1920 1920 1920 1920 1920 1920 1920 1920 1920 1931 1920 1920 1920 1920 1920 1920 1920 1909 1909 1909 1909 1909 1909 1909 1909 1920 1920 1920 1920 1920 1920 1931 1931 1931 1931 1931 1931 1931 1931 1931 1931 1931 1931 1941 1941 1941 1941 1941 1941 1952 1952 1964 1964 1964 1964 1964 1964 1964 1964 1975 1975 1975 1975 1975 1986 1986 2009 2009 2021 2009 2021 2021 2033 2033 2033 2057 2057 2069 0 0 0 0 0 3059 3059 3059 3059 3059 3059 3059 3059 3087 3087 3059 3059 3087 3059 3059 3087 3059 3059 3059 3059 3059 3087 3087 3087 3087 3087 3087 3087 3087 3087 3059 3059 3059 3059 3059 3059 3059 3059 3059 3059 3059 3059 3059 3059 3059 3059 3059 3059 3059 3059 3059 3059 3059 3059 3059 3059 3059 3059 3059 3033 3033 3033 3033 3059 3059 3059 3059 3059 3059 3059 3059 3059 3087 3059 3059 3059 3087 3087 3059 3059 3059 3059 3059 3059 3033 3033 3033 3033 3033 3033 3033 3033 3033 3033 3033 3059 3059 3059 3059 3059 3059 3059 3059 3059 3059 3059 3059 3059 3059 3033 3033 3059 3033 3033 3033 3033 3033 3059 3059 3033 3033 3033 3033 3033 3033 3033 3033 3033 3033 3033 3033 3033 3033 3033 3033 3033 3033 3059 3033 3033 3033 3059 3033 3033 3059 3059 3059 3059 3059 3059 3059 3033 3033 3033 3006 3006 3006 3006 3033 3033 3033 3033 3033 3033 3033 3033 3033 3033 3059 3033 3059 3006 3033 3006 3033 3006 3006 3006 3006 3006 3006 3033 3033 3033 3033 3033 3033 3033 3033 3033 3033 3033 3033 3033 3006 3006 3006 3006 3006 3006 3033 3033 3033 3033 3033 3033 3033 3033 3033 3033 3033 3006 3006 3006 3006 3033 3033 3033 3033 3059 3059 3087 3059 3087 3087 3033 3033
    0 0 0 0 0 0 0 0 0 0 0 0 0 0 0 0 0 0 0 0 0 0 0 0 0 0 0 0 0 0 0 0 0 0 0 0 0 0 0 0 0 0 0 0 0 0 0 0 0 0 0 0 0 0 0 0 0 0 0 0 0 0 0 0 0 0 0 0 0 0 0 0 0 0 0 0 0 0 0 0 0 0 0 0 0 0 0 0 0 0 0 0 0 0 0 0 0 0 0 0 0 0 0 0 0 0 0 0 0 0 0 0 0 0 0 0 0 0 0 0 3059 3059 3059 3059 3087 3087 3087 3087 3087 3087 3087 3087 3087 3087 3087 3087 3087 3087 3087 3059 3087 3059 3059 3059 3033 3059 3033 3033 3033 3033 3033 3033 3033 3033 3033 3033 3033 3033 3033 3033 3033 3033 3033 3059 3059 3059 3059 3059 3059 3059 3059 3059 3059 3033 3059 3059 3059 3033 3059 3033 3059 3033 3059 3059 3059 3059 3059 3033 3033 3033 3033 3033 3033 3033 3033 3033 3033 3059 3059 3033 3033 3033 3087 3059 3087 3059 3059 3059 3059 3059 3059 3059 3059 3059 3059 3059 3059 3059 3059 3059 3059 3059 3059 3059 3059 3059 3059 3059 3087 3087 3087 3059 3059 3059 3059 3059 3059 3059 3059 3059 3059 3059 3059 3059 3059 3059 3059 3059 3059 3059 3059 3033 3033 3033 3033 3059 3059 3059 3059 3087 3087 3059 3059 3087 3059 3087 3087 3087 3087 3115 3087 3087 3087 3087 3087 3087 3087 3087 2069 2069 2057 2045 2045 2033 2033 2021 2021 2009 2009 1998 1998 1998 1986 1986 1986 1986 1986 1986 1986 1975 1975 1975 1975 1964 1964 1964 1964 1952 1952 1952 1952 1952 1952 1952 1941 1941 1941 1941 1941 1920 1920 1920 1920 1920 1920 1920 1920 1920 1931 1920 1920 1920 1920 1920 1920 1920 1920 1920 1920 1931 1931 1931 1920 1920 1920 1920 1920 1909 1920 1920 1920 1920 1920 1920 1920 1920 1920 1920 1920 1920 1920 1931 1931 1931 1931 1931 1931 1931 1931 1931 1931 1931 1941 1941 1941 1941 1941 1941 1952 1952 1952 1952 1964 1964 1964 1964 1964 1964 1964 1975 1975 1975 1975 1986 1986 1998 2009 2009 2021 2021 2021 2033 2033 2045 2045 2057 2069 2082 0 0 0 0 3059 3059 3059 3059 3059 3059 3059 3059 3059 3087 3087 3087 3087 3087 3087 3087 3087 3087 3087 3059 3087 3087 3087 3087 3087 3087 3087 3087 3087 3087 3087 3087 3059 3059 3059 3059 3059 3059 3059 3059 3059 3059 3059 3059 3059 3059 3059 3087 3087 3059 3059 3059 3087 3087 3087 3087 3087 3059 3059 3059 3059 3059 3059 3059 3059 3059 3059 3059 3059 3059 3059 3087 3087 3087 3087 3087 3087 3087 3087 3087 3087 3087 3087 3087 3059 3059 3033 3059 3033 3033 3033 3033 3059 3059 3059 3059 3059 3059 3059 3059 3059 3059 3059 3059 3059 3059 3059 3059 3033 3059 3033 3033 3059 3033 3033 3033 3033 3033 3059 3059 3033 3033 3033 3033 3033 3033 3033 3033 3033 3033 3033 3033 3033 3033 3059 3059 3059 3059 3059 3059 3059 3059 3059 3033 3059 3059 3059 3059 3059 3059 3059 3059 3033 3033 3033 3006 3006 3006 3006 3033 3033 3033 3059 3059 3059 3059 3059 3059 3059 3059 3059 3059 3033 3033 3033 3033 3033 3006 3006 3006 3006 3006 3033 3033 3033 3033 3033 3033 3033 3033 3033 3033 3033 3033 3033 3006 3033 3033 3033 3033 3033 3033 3033 3033 3033 3033 3033 3033 3033 3033 3033 3033 3033 3033 3006 3006 3033 3033 3059 3059 3033 3059 3087 3087 3087 3087 3033 3033
    0 0 0 0 0 0 0 0 0 0 0 0 0 0 0 0 0 0 0 0 0 0 0 0 0 0 0 0 0 0 0 0 0 0 0 0 0 0 0 0 0 0 0 0 0 0 0 0 0 0 0 0 0 0 0 0 0 0 0 0 0 0 0 0 0 0 0 0 0 0 0 0 0 0 0 0 0 0 0 0 0 0 0 0 0 0 0 0 0 0 0 0 0 0 0 0 0 0 0 0 0 0 0 0 0 0 0 0 0 0 0 0 0 0 0 0 0 0 0 0 3087 3087 3087 3087 3087 3087 3115 3087 3115 3087 3087 3115 3115 3087 3087 3087 3087 3087 3087 3059 3059 3059 3059 3059 3059 3059 3059 3059 3059 3033 3033 3033 3033 3033 3033 3033 3033 3033 3033 3033 3033 3033 3059 3059 3059 3059 3059 3059 3059 3059 3059 3059 3059 3059 3059 3059 3059 3059 3059 3059 3059 3059 3059 3059 3059 3059 3059 3059 3033 3059 3033 3033 3033 3033 3033 3033 3033 3059 3059 3059 3059 3059 3059 3059 3087 3059 3059 3059 3059 3059 3059 3059 3059 3059 3059 3059 3087 3059 3087 3087 3059 3059 3059 3059 3059 3059 3059 3059 3087 3087 3087 3059 3059 3059 3059 3059 3059 3059 3059 3059 3059 3087 3087 3059 3059 3059 3059 3059 3059 3059 3059 3059 3059 3033 3059 3059 3059 3059 3059 3059 3087 3059 3087 3059 3059 3087 3087 3087 3087 3115 3087 3087 3087 3087 3087 3087 3087 3115 3087 2057 2057 2045 2045 2033 2033 2021 2021 2021 2009 2009 1998 2009 1998 1986 1986 1986 1986 1986 1986 1975 1975 1975 1975 1975 1964 1964 1964 1964 1952 1964 1952 1952 1964 1952 1952 1941 1941 1941 1941 1931 1920 1920 1920 1920 1920 1920 1920 1920 1920 1920 1920 1920 1920 1920 1920 1920 1920 1931 1931 1931 1931 1931 1931 1931 1931 1920 1920 1920 1920 1920 1920 1920 1920 1920 1920 1920 1920 1920 1920 1920 1931 1931 1931 1931 1931 1931 1931 1931 1931 1931 1931 1941 1941 1941 1941 1941 1952 1952 1952 1952 1952 1964 1964 1964 1964 1964 1964 1964 1975 1975 1975 1986 1986 1986 1998 1998 2009 2009 2021 2021 2021 2033 2033 2033 2045 2057 2069 0 0 0 0 3087 3059 3059 3059 3059 3087 3087 3087 3087 3087 3087 3087 3087 3087 3087 3087 3087 3087 3087 3087 3087 3087 3087 3087 3087 3087 3087 3087 3087 3087 3087 3087 3087 3087 3087 3087 3087 3087 3087 3087 3087 3087 3087 3087 3087 3059 3087 3059 3087 3087 3059 3059 3059 3087 3059 3087 3087 3087 3059 3059 3059 3059 3059 3059 3059 3059 3059 3059 3087 3087 3087 3087 3087 3087 3087 3087 3087 3087 3087 3115 3087 3115 3115 3115 3087 3059 3059 3059 3059 3033 3033 3059 3059 3059 3059 3059 3059 3059 3087 3059 3059 3059 3059 3059 3059 3059 3059 3059 3059 3059 3059 3059 3059 3059 3059 3059 3059 3059 3059 3059 3059 3059 3033 3059 3059 3059 3059 3033 3033 3033 3059 3033 3059 3059 3059 3059 3059 3059 3059 3087 3059 3059 3059 3087 3059 3059 3059 3059 3087 3087 3087 3059 3059 3059 3033 3006 3006 3006 3006 2980 3033 3033 3033 3033 3059 3059 3059 3059 3059 3059 3059 3059 3087 3033 3059 3033 3033 3033 3033 3033 3006 3006 3006 3006 3006 3033 3033 3033 3033 3033 3033 3033 3033 3033 3033 3033 3033 3033 3033 3033 3033 3033 3033 3033 3033 3033 3033 3033 3033 3033 3033 3033 3006 3033 3033 3006 3006 3033 3033 3059 3087 3087 3087 3115 3087 3115 3115 3033 3033
    0 0 0 0 0 0 0 0 0 0 0 0 0 0 0 0 0 0 0 0 0 0 0 0 0 0 0 0 0 0 0 0 0 0 0 0 0 0 0 0 0 0 0 0 0 0 0 0 0 0 0 0 0 0 0 0 0 0 0 0 0 0 0 0 0 0 0 0 0 0 0 0 0 0 0 0 0 0 0 0 0 0 0 0 0 0 0 0 0 0 0 0 0 0 0 0 0 0 0 0 0 0 0 0 0 0 0 0 0 0 0 0 0 0 0 0 0 0 0 0 3087 3087 3087 3087 3115 3115 3115 3115 3115 3115 3087 3115 3115 3087 3087 3087 3087 3087 3087 3087 3087 3087 3087 3059 3059 3059 3059 3059 3059 3059 3059 3059 3059 3033 3033 3033 3033 3033 3033 3033 3033 3033 3059 3059 3059 3059 3059 3059 3059 3059 3059 3059 3059 3059 3059 3059 3059 3059 3059 3059 3059 3059 3059 3059 3059 3059 3059 3059 3059 3059 3059 3059 3059 3059 3059 3059 3059 3059 3059 3059 3059 3059 3087 3059 3087 3059 3059 3059 3087 3059 3087 3087 3087 3087 3087 3087 3087 3087 3087 3087 3087 3087 3059 3059 3059 3059 3059 3087 3115 3115 3115 3087 3087 3059 3087 3087 3059 3059 3059 3059 3059 3087 3087 3087 3087 3087 3087 3087 3087 3087 3059 3059 3059 3059 3059 3115 3115 3115 3115 3087 3087 3087 3087 3087 3087 3087 3087 3115 3115 3115 3087 3087 3087 3087 3087 3087 3087 3115 3115 3115 2045 2045 2045 2033 2033 2033 2033 2021 2021 2021 2009 2009 2009 1998 1986 1998 1986 1986 1975 1975 1975 1975 1975 1975 1964 1964 1964 1964 1964 1964 1964 1964 1964 1964 1952 1952 1941 1941 1941 1931 1920 1920 1920 1920 1920 1920 1920 1920 1931 1931 1931 1931 1931 1920 1931 1920 1920 1931 1931 1931 1931 1931 1931 1931 1931 1931 1931 1920 1920 1920 1920 1920 1920 1920 1920 1920 1920 1920 1920 1920 1931 1931 1931 1931 1931 1931 1931 1931 1931 1931 1941 1941 1941 1941 1941 1941 1964 1964 1964 1952 1964 1964 1964 1964 1964 1964 1964 1975 1975 1975 1975 1986 1998 1998 1998 2009 2009 2009 2021 2021 2021 2033 2045 2045 2045 0 0 0 0 0 0 3059 3059 3059 3059 3087 3087 3087 3087 3087 3087 3087 3087 3087 3087 3087 3087 3087 3087 3087 3087 3087 3087 3087 3087 3087 3087 3087 3087 3087 3087 3087 3087 3087 3087 3059 3087 3087 3087 3087 3087 3087 3087 3087 3087 3087 3059 3087 3059 3059 3059 3059 3087 3087 3087 3087 3087 3087 3087 3087 3087 3059 3087 3059 3087 3059 3059 3087 3087 3087 3087 3087 3087 3087 3087 3087 3087 3087 3087 3087 3115 3087 3115 3115 3115 3087 3059 3059 3059 3059 3059 3059 3059 3059 3059 3059 3059 3059 3087 3087 3087 3087 3059 3059 3059 3059 3059 3059 3059 3059 3059 3059 3059 3059 3059 3087 3059 3059 3087 3059 3059 3059 3059 3059 3059 3059 3059 3059 3033 3033 3059 3059 3059 3059 3059 3059 3059 3059 3059 3059 3087 3059 3059 3087 3087 3059 3087 3087 3087 3087 3115 3087 3059 3087 3059 3033 3033 3006 3006 3006 3006 3033 3033 3059 3059 3059 3059 3059 3087 3059 3059 3059 3087 3087 3059 3059 3059 3059 3033 3033 3033 3006 3006 3006 3006 3006 3033 3033 3033 3033 3033 3033 3059 3059 3033 3059 3059 3033 3033 3087 3033 3059 3033 3059 3059 3059 3059 3059 3059 3059 3059 3059 3059 3033 3033 3033 3033 3033 3033 3033 3059 3087 3087 3087 3115 3087 3115 3115 3087 3087
    0 0 0 0 0 0 0 0 0 0 0 0 0 0 0 0 0 0 0 0 0 0 0 0 0 0 0 0 0 0 0 0 0 0 0 0 0 0 0 0 0 0 0 0 0 0 0 0 0 0 0 0 0 0 0 0 0 0 0 0 0 0 0 0 0 0 0 0 0 0 0 0 0 0 0 0 0 0 0 0 0 0 0 0 0 0 0 0 0 0 0 0 0 0 0 0 0 0 0 0 0 0 0 0 0 0 0 0 0 0 0 0 0 0 0 0 0 0 0 3087 3087 3087 3087 3087 3115 3115 3115 3115 3115 3115 3115 3115 3115 3087 3087 3087 3087 3087 3087 3087 3087 3087 3087 3059 3059 3087 3059 3059 3059 3059 3059 3059 3059 3059 3059 3059 3059 3033 3059 3059 3059 3059 3059 3059 3059 3059 3059 3059 3059 3059 3059 3059 3059 3059 3059 3059 3059 3059 3059 3059 3059 3059 3059 3059 3059 3059 3059 3059 3059 3059 3059 3059 3059 3059 3059 3059 3059 3059 3059 3059 3059 3059 3087 3087 3087 3087 3087 3087 3087 3087 3087 3087 3087 3087 3087 3087 3087 3087 3087 3087 3087 3087 3087 3087 3087 3115 3115 3115 3115 3115 3115 3087 3087 3087 3115 3115 3087 3087 3087 3115 3087 3115 3115 3087 3087 3087 3087 3087 3087 3087 3059 3059 3059 3115 3115 3115 3115 3115 3115 3115 3115 3087 3087 3087 3087 3087 3087 3115 3115 3087 3087 3087 3087 3115 3115 3115 3115 3143 3143 3143 2045 2045 2045 2045 2033 2033 2033 2021 2021 2021 2021 2021 2009 2009 1998 1998 1998 1986 1986 1975 1975 1975 1975 1975 1964 1975 1975 1975 1975 1964 1975 1964 1975 1964 1964 1952 1952 1952 1941 1931 1920 1931 1931 1920 1920 1920 1920 1931 1931 1931 1931 1931 1931 1931 1931 1931 1931 1931 1931 1931 1931 1931 1931 1931 1931 1931 1931 1920 1920 1920 1920 1920 1920 1920 1920 1931 1920 1931 1931 1931 1931 1931 1931 1931 1931 1931 1931 1931 1931 1941 1941 1941 1941 1941 1952 1964 1964 1964 1964 1952 1964 1964 1964 1952 1964 1964 1975 1975 1975 1986 1986 1998 1998 1998 2009 2009 2009 2009 2021 2021 2021 2033 2045 2057 2057 0 0 0 0 0 3059 3087 3059 3059 3059 3087 3087 3087 3087 3087 3087 3087 3087 3087 3087 3087 3087 3087 3087 3087 3087 3087 3087 3087 3087 3087 3087 3087 3115 3087 3087 3087 3087 3087 3087 3059 3087 3087 3087 3087 3087 3087 3087 3087 3087 3087 3087 3087 3087 3087 3087 3087 3087 3087 3087 3087 3087 3087 3087 3087 3087 3087 3087 3059 3087 3087 3087 3087 3087 3087 3087 3087 3087 3115 3115 3115 3087 3115 3115 3115 3143 3115 3115 3143 3143 3115 3087 3059 3033 3059 3059 3059 3059 3059 3087 3087 3087 3087 3115 3115 3087 3087 3059 3059 3059 3059 3059 3059 3059 3059 3059 3059 3059 3087 3087 3087 3087 3059 3087 3059 3059 3059 3059 3033 3059 3059 3059 3059 3033 3033 3059 3059 3059 3059 3059 3059 3087 3087 3087 3087 3115 3087 3087 3087 3087 3087 3087 3087 3087 3115 3115 3115 3087 3087 3059 3059 3033 3006 3033 3033 3006 3033 3059 3059 3059 3059 3059 3059 3087 3059 3087 3087 3087 3115 3059 3087 3059 3059 3059 3059 3033 3033 3033 3033 3006 3006 3033 3033 3033 3033 3033 3033 3033 3033 3033 3033 3033 3033 3059 3087 3059 3087 3059 3059 3059 3059 3059 3059 3059 3059 3059 3059 3059 3059 3059 3059 3033 3059 3087 3059 3087 3115 3115 3115 3115 3115 3115 3115 3087 3087
    0 0 0 0 0 0 0 0 0 0 0 0 0 0 0 0 0 0 0 0 0 0 0 0 0 0 0 0 0 0 0 0 0 0 0 0 0 0 0 0 0 0 0 0 0 0 0 0 0 0 0 0 0 0 0 0 0 0 0 0 0 0 0 0 0 0 0 0 0 0 0 0 0 0 0 0 0 0 0 0 0 0 0 0 0 0 0 0 0 0 0 0 0 0 0 0 0 0 0 0 0 0 0 0 0 0 0 0 0 0 0 0 0 0 0 0 0 0 0 3087 3087 3087 3115 3115 3115 3115 3143 3115 3143 3115 3115 3115 3087 3087 3087 3087 3087 3087 3087 3087 3087 3087 3087 3059 3059 3087 3087 3087 3059 3059 3059 3059 3087 3059 3059 3059 3059 3059 3059 3059 3059 3059 3059 3059 3059 3059 3059 3059 3059 3059 3087 3059 3087 3087 3087 3087 3059 3087 3087 3087 3087 3059 3059 3059 3059 3059 3087 3059 3087 3059 3059 3059 3115 3059 3059 3059 3059 3059 3059 3059 3059 3059 3087 3087 3087 3087 3087 3087 3087 3087 3087 3087 3087 3087 3087 3087 3115 3087 3087 3087 3087 3087 3087 3115 3115 3115 3115 3115 3143 3143 3143 3115 3115 3115 3115 3115 3115 3087 3115 3115 3087 3115 3115 3115 3087 3115 3115 3087 3087 3087 3059 3059 3087 3115 3115 3115 3115 3115 3115 3115 3115 3115 3115 3115 3115 3115 3115 3115 3115 3087 3087 3087 3115 3115 3115 3115 3115 3143 3143 3143 2045 2045 2045 2045 2033 2033 2033 2021 2021 2021 2021 2021 2021 2009 1998 1998 1986 1986 1975 1975 1975 1975 1975 1975 1975 1975 1975 1975 1975 1964 1975 1975 1975 1975 1964 1952 1952 1952 1941 1931 1931 1931 1931 1931 1931 1931 1931 1931 1931 1931 1931 1931 1931 1931 1931 1931 1931 1931 1931 1931 1931 1931 1931 1931 1931 1931 1931 1920 1931 1931 1931 1920 1931 1931 1931 1931 1931 1931 1931 1931 1931 1931 1931 1931 1931 1941 1941 1941 1941 1941 1941 1964 1952 1952 1952 1964 1964 1964 1964 1964 1964 1964 1964 1964 1964 1964 1975 1975 1986 1986 1986 1998 1998 2009 2009 2009 2009 2009 2021 2021 2033 2033 2057 2057 0 0 0 0 0 0 3059 3087 3087 3087 3087 3087 3087 3087 3087 3087 3087 3087 3087 3087 3087 3087 3087 3115 3115 3115 3087 3087 3115 3115 3087 3087 3087 3087 3115 3087 3087 3087 3087 3087 3087 3087 3087 3087 3087 3087 3087 3087 3087 3087 3087 3087 3087 3087 3087 3087 3087 3087 3087 3087 3087 3087 3087 3087 3087 3087 3087 3087 3087 3087 3087 3087 3087 3087 3115 3115 3115 3115 3115 3115 3115 3115 3115 3115 3115 3143 3143 3143 3143 3143 3143 3115 3087 3087 3059 3059 3059 3059 3087 3087 3087 3087 3087 3115 3115 3115 3115 3087 3087 3087 3087 3059 3059 3059 3059 3087 3059 3087 3059 3087 3087 3115 3087 3087 3087 3059 3059 3059 3059 3059 3059 3059 3059 3059 3059 3059 3059 3059 3059 3059 3059 3087 3087 3115 3115 3115 3115 3087 3087 3087 3115 3087 3087 3115 3115 3115 3115 3115 3087 3115 3087 3087 3059 3033 3033 3033 3033 3059 3059 3059 3059 3059 3059 3087 3087 3087 3087 3087 3087 3115 3087 3087 3087 3087 3059 3059 3059 3059 3033 3033 3033 3006 3006 3033 3033 3033 3006 3006 3033 3033 3059 3059 3033 3033 3059 3087 3087 3087 3087 3087 3087 3087 3087 3087 3087 3087 3087 3115 3143 3059 3059 3115 3087 3087 3115 3115 3115 3115 3115 3115 3115 3115 3115 3115 3115 3087
    0 0 0 0 0 0 0 0 0 0 0 0 0 0 0 0 0 0 0 0 0 0 0 0 0 0 0 0 0 0 0 0 0 0 0 0 0 0 0 0 0 0 0 0 0 0 0 0 0 0 0 0 0 0 0 0 0 0 0 0 0 0 0 0 0 0 0 0 0 0 0 0 0 0 0 0 0 0 0 0 0 0 0 0 0 0 0 0 0 0 0 0 0 0 0 0 0 0 0 0 0 0 0 0 0 0 0 0 0 0 0 0 0 0 0 0 0 0 0 3087 3087 3115 3115 3115 3143 3143 3143 3143 3143 3143 3115 3115 3087 3087 3087 3087 3087 3087 3087 3087 3087 3087 3087 3087 3087 3087 3087 3087 3087 3087 3087 3087 3087 3059 3059 3059 3059 3059 3059 3059 3059 3087 3087 3059 3087 3059 3087 3087 3087 3087 3087 3087 3087 3087 3087 3087 3087 3115 3087 3087 3087 3087 3087 3087 3087 3087 3087 3087 3087 3087 3115 3087 3115 3115 3087 3059 3059 3087 3059 3087 3059 3087 3115 3115 3115 3087 3115 3087 3087 3087 3087 3087 3087 3087 3087 3087 3115 3115 3087 3087 3115 3115 3115 3115 3115 3115 3143 3143 3143 3143 3143 3115 3115 3115 3115 3115 3115 3115 3115 3115 3115 3115 3115 3115 3115 3115 3115 3115 3115 3087 3087 3087 3087 3115 3115 3115 3115 3115 3115 3115 3115 3115 3115 3115 3115 3115 3115 3115 3115 3115 3115 3115 3115 3115 3115 3115 3143 3143 3143 3143 2033 2045 2033 2033 2033 2033 2033 2021 2021 2021 2021 2021 2021 2021 2009 1998 1998 1986 1986 1986 1986 1975 1975 1975 1975 1975 1975 1975 1975 1975 1975 1975 1975 1975 1964 1964 1952 1952 1941 1931 1931 1931 1931 1931 1931 1931 1931 1931 1931 1931 1931 1931 1931 1931 1931 1931 1931 1931 1931 1931 1931 1931 1931 1931 1931 1931 1931 1931 1931 1931 1931 1931 1931 1931 1931 1931 1931 1931 1931 1931 1931 1931 1931 1941 1941 1941 1941 1941 1941 1941 1964 1964 1952 1952 1964 1964 1964 1964 1964 1964 1964 1964 1964 1964 1964 1975 1975 1986 1986 1998 1986 1998 1998 2009 2009 2009 2009 2021 2021 2033 2045 2057 2069 2069 0 0 0 0 0 0 3059 3087 3087 3087 3087 3087 3087 3087 3087 3087 3087 3087 3087 3087 3087 3087 3115 3115 3115 3115 3115 3115 3115 3115 3087 3087 3087 3115 3115 3087 3087 3087 3115 3087 3115 3087 3087 3087 3115 3087 3087 3087 3087 3087 3087 3087 3087 3087 3087 3087 3115 3115 3087 3087 3087 3087 3087 3115 3115 3115 3115 3115 3115 3087 3087 3087 3087 3115 3115 3115 3115 3115 3115 3143 3143 3143 3115 3115 3115 3143 3143 3143 3143 3143 3143 3115 3087 3087 3059 3087 3087 3087 3087 3087 3115 3115 3115 3115 3115 3115 3115 3087 3087 3087 3115 3087 3059 3059 3087 3087 3087 3087 3087 3115 3115 3115 3115 3087 3115 3087 3087 3059 3087 3059 3059 3059 3059 3059 3059 3059 3059 3059 3059 3087 3059 3087 3087 3087 3115 3115 3115 3087 3087 3087 3115 3115 3115 3115 3115 3115 3143 3143 3115 3115 3087 3087 3059 3059 3059 3059 3059 3059 3059 3059 3059 3059 3087 3087 3087 3087 3087 3087 3115 3115 3087 3087 3087 3087 3087 3087 3087 3059 3059 3033 3033 3006 3006 3033 3033 3033 3033 3033 3033 3033 3033 3033 3033 3033 3059 3087 3087 3087 3087 3087 3059 3087 3087 3115 3143 3143 3143 3143 3115 3115 3115 3115 3087 3087 3087 3087 3087 3115 3115 3115 3115 3115 3115 3115 3087 3087
    0 0 0 0 0 0 0 0 0 0 0 0 0 0 0 0 0 0 0 0 0 0 0 0 0 0 0 0 0 0 0 0 0 0 0 0 0 0 0 0 0 0 0 0 0 0 0 0 0 0 0 0 0 0 0 0 0 0 0 0 0 0 0 0 0 0 0 0 0 0 0 0 0 0 0 0 0 0 0 0 0 0 0 0 0 0 0 0 0 0 0 0 0 0 0 0 0 0 0 0 0 0 0 0 0 0 0 0 0 0 0 0 0 0 0 0 0 0 0 3087 3087 3115 3115 3143 3143 3143 3143 3143 3143 3143 3115 3115 3115 3115 3115 3087 3087 3087 3087 3087 3087 3087 3087 3087 3087 3115 3115 3115 3115 3115 3115 3115 3087 3087 3087 3087 3087 3087 3087 3087 3087 3087 3087 3087 3115 3115 3115 3087 3087 3087 3087 3087 3087 3087 3087 3087 3087 3115 3115 3115 3087 3087 3087 3087 3087 3087 3087 3087 3115 3115 3115 3115 3115 3115 3115 3115 3087 3087 3087 3115 3087 3115 3115 3115 3115 3115 3115 3115 3087 3087 3087 3115 3087 3115 3087 3115 3115 3087 3087 3087 3115 3115 3115 3115 3115 3143 3143 3143 3143 3143 3143 3115 3115 3115 3087 3115 3087 3087 3115 3115 3115 3115 3115 3115 3115 3115 3115 3115 3115 3115 3115 3115 3115 3115 3115 3115 3143 3143 3115 3115 3115 3115 3115 3115 3115 3115 3115 3115 3115 3115 3115 3115 3115 3143 3143 3143 3143 3143 3143 3143 2057 2057 2057 2057 2045 2045 2045 2033 2021 2033 2021 2021 2021 2021 2009 2009 1998 1986 1986 1975 1986 1975 1975 1975 1975 1975 1975 1975 1975 1975 1975 1975 1975 1975 1964 1964 1964 1964 1952 1931 1931 1931 1931 1931 1931 1931 1931 1931 1941 1931 1941 1941 1931 1941 1931 1931 1931 1931 1931 1931 1931 1941 1931 1941 1931 1931 1931 1931 1931 1931 1931 1931 1931 1931 1931 1931 1931 1931 1931 1931 1941 1941 1941 1941 1941 1941 1941 1941 1941 1964 1964 1964 1964 1964 1964 1964 1964 1964 1964 1964 1964 1964 1964 1964 1975 1975 1975 1986 1998 1998 1998 1998 2009 2009 2009 2009 2021 2021 2021 2033 2057 2069 2069 2069 0 0 0 0 0 0 3059 3087 3087 3087 3087 3087 3087 3087 3115 3087 3087 3087 3087 3115 3115 3115 3115 3143 3143 3115 3115 3115 3115 3115 3087 3087 3087 3115 3115 3087 3087 3115 3115 3115 3115 3115 3087 3115 3115 3115 3115 3087 3087 3115 3087 3115 3087 3115 3087 3115 3115 3115 3115 3115 3115 3115 3087 3115 3115 3115 3115 3115 3115 3087 3115 3087 3087 3115 3115 3115 3115 3143 3143 3143 3143 3143 3143 3143 3143 3143 3143 3143 3143 3143 3143 3115 3087 3087 3087 3087 3115 3087 3087 3115 3115 3115 3143 3143 3115 3143 3115 3115 3115 3115 3115 3087 3087 3087 3087 3087 3087 3087 3087 3115 3115 3143 3115 3115 3115 3087 3087 3059 3087 3059 3059 3059 3087 3087 3087 3087 3087 3087 3087 3115 3087 3087 3115 3115 3115 3115 3115 3115 3115 3115 3115 3115 3115 3143 3115 3143 3115 3143 3115 3115 3115 3087 3087 3087 3087 3059 3059 3059 3087 3059 3059 3059 3087 3087 3087 3087 3087 3087 3115 3115 3087 3087 3087 3115 3087 3087 3087 3059 3087 3059 3033 3033 3033 3033 3033 3033 3033 3033 3033 3033 3033 3059 3059 3059 3087 3087 3087 3087 3087 3087 3059 3087 3087 3143 3172 3115 3143 3143 3115 3115 3087 3087 3087 3115 3087 3087 3115 3115 3115 3115 3115 3115 3115 3115 3115 3087
    0 0 0 0 0 0 0 0 0 0 0 0 0 0 0 0 0 0 0 0 0 0 0 0 0 0 0 0 0 0 0 0 0 0 0 0 0 0 0 0 0 0 0 0 0 0 0 0 0 0 0 0 0 0 0 0 0 0 0 0 0 0 0 0 0 0 0 0 0 0 0 0 0 0 0 0 0 0 0 0 0 0 0 0 0 0 0 0 0 0 0 0 0 0 0 0 0 0 0 0 0 0 0 0 0 0 0 0 0 0 0 0 0 0 0 0 0 0 0 3115 3115 3143 3143 3143 3143 3143 3143 3143 3143 3143 3115 3115 3115 3115 3115 3115 3087 3087 3115 3115 3115 3115 3087 3087 3087 3115 3115 3115 3115 3115 3115 3115 3115 3087 3087 3087 3087 3087 3087 3087 3087 3087 3087 3087 3115 3115 3087 3087 3087 3087 3115 3115 3115 3115 3115 3115 3115 3115 3115 3115 3115 3087 3087 3115 3087 3087 3087 3087 3087 3087 3115 3115 3143 3143 3115 3115 3115 3115 3087 3115 3115 3115 3115 3115 3143 3115 3115 3115 3115 3115 3115 3115 3115 3115 3115 3087 3115 3087 3087 3087 3115 3115 3115 3115 3115 3143 3143 3143 3143 3143 3143 3115 3115 3115 3115 3115 3115 3115 3115 3115 3115 3115 3115 3115 3143 3115 3143 3115 3143 3115 3115 3115 3115 3115 3115 3115 3115 3143 3143 3115 3115 3115 3115 3115 3115 3115 3115 3115 3115 3115 3115 3115 3143 3143 3143 3143 3143 3143 3143 3143 3172 2033 2033 2057 2033 2033 2033 2033 2033 2021 2033 2033 2021 2021 2009 2009 2009 1998 1998 1986 1986 1986 1986 1986 1986 1975 1975 1975 1975 1975 1975 1975 1975 1975 1975 1964 1964 1964 1952 1941 1941 1941 1941 1931 1931 1931 1931 1941 1941 1941 1941 1941 1941 1941 1941 1941 1931 1941 1931 1931 1931 1941 1931 1941 1931 1931 1931 1931 1931 1931 1931 1931 1931 1931 1931 1931 1931 1931 1931 1931 1941 1941 1941 1941 1952 1952 1952 1952 1952 1964 1964 1964 1964 1964 1964 1964 1964 1964 1964 1964 1964 1964 1975 1964 1975 1975 1975 1998 1998 2009 1998 2009 2009 2009 2009 2021 2021 2033 2033 2045 2057 2069 2069 2082 0 0 0 0 0 0 3087 3087 3087 3087 3087 3087 3087 3087 3115 3115 3115 3115 3115 3115 3115 3143 3143 3143 3143 3143 3143 3115 3115 3115 3087 3087 3087 3115 3115 3115 3115 3115 3115 3115 3115 3115 3115 3115 3143 3115 3115 3115 3115 3115 3087 3115 3115 3115 3087 3115 3115 3115 3115 3115 3115 3115 3115 3115 3115 3115 3115 3115 3115 3087 3115 3115 3115 3115 3143 3143 3143 3143 3143 3143 3143 3143 3143 3143 3143 3143 3143 3143 3143 3143 3143 3143 3115 3087 3087 3115 3115 3115 3115 3115 3115 3143 3115 3115 3115 3115 3115 3115 3115 3115 3115 3115 3115 3087 3115 3087 3087 3115 3115 3115 3115 3143 3143 3143 3143 3115 3115 3087 3115 3087 3087 3087 3087 3087 3087 3115 3087 3115 3115 3115 3115 3115 3115 3115 3115 3115 3115 3115 3115 3115 3143 3143 3143 3143 3143 3143 3143 3143 3115 3115 3115 3087 3087 3087 3115 3087 3087 3087 3115 3087 3087 3087 3087 3087 3087 3087 3087 3087 3115 3115 3087 3087 3115 3115 3115 3115 3087 3087 3087 3059 3059 3033 3033 3033 3059 3059 3033 3033 3033 3033 3059 3059 3059 3059 3087 3087 3115 3087 3087 3087 3059 3087 3087 3143 3143 3115 3115 3115 3143 3143 3115 3115 3087 3087 3087 3087 3087 3087 3087 3087 3115 3087 3115 3115 3115 3087
    0 0 0 0 0 0 0 0 0 0 0 0 0 0 0 0 0 0 0 0 0 0 0 0 0 0 0 0 0 0 0 0 0 0 0 0 0 0 0 0 0 0 0 0 0 0 0 0 0 0 0 0 0 0 0 0 0 0 0 0 0 0 0 0 0 0 0 0 0 0 0 0 0 0 0 0 0 0 0 0 0 0 0 0 0 0 0 0 0 0 0 0 0 0 0 0 0 0 0 0 0 0 0 0 0 0 0 0 0 0 0 0 0 0 0 0 0 0 3172 3115 3143 3143 3143 3172 3172 3172 3172 3143 3172 3172 3115 3115 3115 3115 3115 3115 3087 3115 3115 3115 3115 3115 3115 3087 3087 3115 3115 3115 3115 3115 3087 3115 3115 3087 3087 3115 3087 3087 3115 3115 3087 3115 3087 3087 3115 3115 3115 3087 3115 3087 3115 3087 3087 3115 3115 3115 3115 3115 3115 3115 3115 3115 3115 3143 3115 3115 3115 3115 3143 3143 3143 3143 3143 3143 3143 3143 3115 3115 3115 3115 3115 3115 3115 3115 3143 3143 3143 3143 3115 3115 3115 3115 3115 3115 3115 3115 3115 3115 3115 3115 3115 3115 3115 3115 3115 3143 3143 3143 3143 3143 3143 3115 3115 3115 3115 3115 3115 3115 3115 3115 3115 3115 3115 3143 3143 3143 3143 3143 3143 3143 3143 3143 3143 3143 3143 3115 3115 3115 3143 3143 3143 3143 3143 3143 3143 3143 3143 3143 3143 3115 3143 3115 3115 3143 3143 3143 3172 3172 3172 3172 3172 3172 2033 2033 2033 2033 2033 2033 2033 2033 2033 2021 2033 2033 2021 2021 2009 1998 1998 1986 1986 1986 1986 1986 1986 1975 1975 1975 1986 1975 1975 1975 1975 1975 1975 1964 1964 1964 1964 1952 1952 1952 1941 1941 1941 1931 1941 1941 1941 1941 1941 1941 1941 1941 1941 1941 1941 1941 1941 1941 1941 1941 1941 1941 1941 1931 1931 1931 1931 1931 1931 1931 1931 1931 1931 1931 1931 1931 1931 1941 1941 1941 1941 1941 1952 1952 1952 1952 1952 1952 1952 1964 1964 1964 1964 1964 1964 1964 1975 1975 1975 1975 1975 1975 1986 1986 1986 1998 2009 2009 2009 2009 2009 2021 2021 2021 2033 2033 2045 2057 2069 2082 2069 2082 0 0 0 0 0 0 3087 3087 3087 3087 3115 3115 3115 3087 3115 3115 3115 3115 3115 3115 3143 3143 3143 3143 3143 3143 3143 3143 3115 3115 3115 3115 3087 3115 3115 3115 3115 3115 3143 3143 3143 3143 3115 3115 3143 3143 3143 3115 3115 3143 3143 3115 3115 3115 3115 3143 3143 3143 3115 3115 3143 3143 3115 3172 3115 3115 3115 3115 3115 3115 3115 3115 3115 3143 3143 3143 3143 3143 3143 3143 3143 3143 3143 3143 3143 3143 3143 3143 3143 3143 3143 3143 3115 3115 3115 3115 3143 3115 3115 3143 3143 3143 3143 3115 3115 3115 3115 3115 3115 3115 3143 3115 3143 3143 3115 3115 3115 3115 3115 3115 3115 3143 3143 3143 3143 3115 3115 3115 3115 3115 3087 3087 3115 3115 3115 3115 3115 3115 3143 3143 3143 3143 3143 3143 3143 3143 3115 3115 3143 3143 3143 3143 3143 3143 3143 3143 3143 3143 3143 3143 3115 3115 3115 3115 3115 3115 3115 3115 3115 3115 3115 3087 3087 3087 3087 3087 3087 3087 3087 3087 3059 3087 3115 3115 3115 3115 3087 3087 3115 3087 3059 3033 3033 3033 3059 3059 3033 3059 3059 3059 3059 3059 3059 3059 3087 3087 3087 3115 3087 3087 3059 3087 3115 3115 3115 3115 3115 3143 3143 3143 3115 3115 3087 3115 3087 3087 3087 3087 3087 3087 3087 3115 3115 3115 3115 3115
    0 0 0 0 0 0 0 0 0 0 0 0 0 0 0 0 0 0 0 0 0 0 0 0 0 0 0 0 0 0 0 0 0 0 0 0 0 0 0 0 0 0 0 0 0 0 0 0 0 0 0 0 0 0 0 0 0 0 0 0 0 0 0 0 0 0 0 0 0 0 0 0 0 0 0 0 0 0 0 0 0 0 0 0 0 0 0 0 0 0 0 0 0 0 0 0 0 0 0 0 0 0 0 0 0 0 0 0 0 0 0 0 0 0 0 0 0 0 3201 3172 3172 3143 3172 3172 3172 3172 3172 3172 3172 3172 3143 3143 3115 3143 3143 3143 3143 3115 3143 3143 3143 3143 3143 3087 3087 3115 3115 3115 3115 3087 3087 3115 3115 3087 3115 3115 3115 3115 3115 3115 3115 3115 3087 3087 3115 3115 3115 3115 3143 3115 3143 3143 3143 3115 3115 3115 3115 3143 3115 3143 3115 3143 3143 3143 3115 3143 3115 3115 3143 3143 3143 3143 3143 3143 3143 3143 3143 3143 3115 3115 3143 3143 3143 3143 3143 3143 3143 3143 3115 3115 3115 3115 3115 3115 3115 3115 3115 3115 3115 3115 3115 3115 3143 3143 3115 3143 3143 3143 3143 3143 3143 3115 3115 3115 3115 3115 3115 3115 3115 3115 3115 3115 3115 3143 3143 3143 3143 3143 3143 3143 3143 3143 3143 3143 3143 3143 3143 3115 3143 3143 3143 3143 3143 3143 3143 3143 3143 3143 3143 3143 3143 3143 3143 3143 3143 3143 3172 3172 3172 3172 3172 3201 2033 2033 2033 2033 2033 2033 2033 2033 2033 2033 2033 2033 2021 2021 2021 2009 2009 1986 1986 1986 1986 1986 1986 1986 1975 1986 1975 1975 1975 1975 1975 1975 1975 1964 1964 1975 1964 1952 1952 1952 1952 1941 1941 1931 1941 1941 1941 1941 1941 1941 1941 1952 1941 1941 1941 1941 1941 1941 1941 1941 1941 1941 1941 1931 1931 1931 1941 1931 1931 1931 1931 1931 1931 1941 1931 1931 1941 1941 1941 1941 1952 1952 1952 1952 1964 1964 1964 1964 1964 1964 1964 1964 1975 1975 1975 1975 1975 1975 1975 1975 1986 1986 1986 1998 1998 1998 2009 2009 2009 2021 2021 2021 2021 2033 2033 2045 2045 2057 2069 2069 2069 2082 0 0 0 0 0 0 3087 3087 3087 3115 3115 3115 3115 3115 3143 3115 3115 3115 3115 3143 3143 3143 3143 3172 3172 3172 3143 3143 3143 3143 3115 3115 3087 3115 3143 3115 3115 3143 3143 3143 3143 3143 3115 3143 3143 3143 3143 3115 3143 3143 3143 3143 3115 3115 3115 3143 3143 3143 3143 3143 3143 3143 3172 3172 3172 3172 3143 3115 3172 3143 3143 3143 3143 3143 3143 3172 3172 3172 3143 3143 3143 3143 3143 3143 3143 3143 3143 3143 3143 3143 3172 3172 3143 3143 3143 3143 3143 3143 3143 3143 3143 3143 3143 3143 3115 3115 3115 3115 3143 3143 3143 3143 3143 3115 3115 3115 3115 3115 3115 3115 3115 3143 3143 3143 3115 3115 3115 3115 3115 3115 3115 3115 3115 3115 3115 3115 3115 3115 3143 3143 3143 3143 3143 3143 3143 3143 3143 3143 3143 3143 3143 3143 3143 3143 3143 3143 3143 3143 3143 3143 3143 3115 3115 3115 3115 3115 3115 3115 3115 3115 3115 3115 3087 3087 3087 3087 3087 3087 3087 3087 3059 3087 3115 3115 3115 3115 3115 3115 3115 3115 3087 3059 3059 3059 3059 3087 3059 3059 3059 3059 3087 3087 3087 3059 3087 3087 3115 3115 3115 3087 3059 3087 3115 3115 3143 3143 3143 3143 3143 3143 3143 3115 3115 3115 3115 3115 3087 3087 3087 3115 3115 3115 3115 3115 3115 3115
    0 0 0 0 0 0 0 0 0 0 0 0 0 0 0 0 0 0 0 0 0 0 0 0 0 0 0 0 0 0 0 0 0 0 0 0 0 0 0 0 0 0 0 0 0 0 0 0 0 0 0 0 0 0 0 0 0 0 0 0 0 0 0 0 0 0 0 0 0 0 0 0 0 0 0 0 0 0 0 0 0 0 0 0 0 0 0 0 0 0 0 0 0 0 0 0 0 0 0 0 0 0 0 0 0 0 0 0 0 0 0 0 0 0 0 0 0 0 3172 3143 3172 3172 3172 3172 3172 3172 3172 3172 3172 3172 3172 3143 3143 3143 3143 3172 3143 3143 3143 3143 3143 3172 3143 3115 3115 3115 3115 3115 3115 3115 3115 3115 3115 3115 3143 3115 3115 3115 3115 3115 3115 3115 3115 3115 3115 3143 3143 3143 3143 3087 3143 3143 3143 3143 3115 3115 3115 3143 3115 3143 3143 3143 3143 3143 3143 3143 3115 3115 3143 3143 3143 3143 3143 3143 3143 3143 3143 3143 3143 3115 3143 3143 3143 3143 3143 3143 3143 3143 3143 3115 3115 3115 3115 3115 3115 3115 3115 3115 3115 3143 3143 3143 3143 3143 3143 3143 3143 3143 3143 3143 3143 3115 3115 3115 3115 3115 3115 3115 3143 3115 3115 3115 3115 3143 3143 3143 3143 3143 3143 3143 3143 3143 3143 3143 3143 3143 3143 3143 3143 3143 3143 3143 3143 3143 3143 3143 3172 3143 3143 3143 3143 3172 3143 3143 3172 3172 3172 3172 3172 3172 3172 3172 2069 2069 2033 2033 2033 2033 2033 2033 2033 2033 2033 2033 2021 2021 2021 2009 2009 1998 1986 1998 1986 1986 1986 1986 1975 1986 1975 1975 1975 1975 1975 1975 1964 1975 1975 1975 1975 1964 1964 1964 1964 1952 1952 1941 1941 1941 1941 1941 1941 1941 1952 1952 1952 1952 1952 1952 1941 1941 1941 1941 1941 1952 1941 1941 1941 1941 1941 1941 1941 1941 1941 1941 1941 1941 1941 1941 1941 1941 1941 1952 1952 1952 1964 1964 1964 1964 1964 1964 1964 1964 1964 1975 1975 1975 1975 1975 1975 1975 1975 1975 1986 1986 1998 1998 1998 2009 2009 2009 2009 2021 2021 2033 2033 2045 2057 2057 2057 2069 2069 2082 2069 2082 0 0 0 0 0 0 3115 3115 3115 3115 3143 3143 3143 3143 3143 3143 3143 3143 3143 3143 3143 3143 3172 3172 3172 3172 3172 3172 3143 3143 3143 3143 3115 3143 3143 3172 3143 3172 3172 3172 3172 3172 3143 3143 3143 3143 3143 3143 3143 3143 3143 3143 3143 3143 3143 3143 3143 3143 3143 3143 3143 3143 3143 3172 3143 3143 3143 3143 3143 3143 3143 3143 3143 3143 3172 3172 3172 3172 3172 3143 3143 3143 3143 3143 3143 3143 3143 3143 3143 3172 3172 3172 3143 3143 3143 3143 3143 3143 3143 3143 3143 3143 3143 3143 3115 3115 3143 3143 3143 3172 3172 3172 3172 3172 3172 3172 3143 3143 3143 3143 3143 3143 3143 3143 3143 3143 3115 3115 3115 3115 3115 3115 3115 3115 3115 3143 3143 3143 3143 3143 3172 3172 3172 3172 3172 3143 3143 3143 3143 3143 3143 3143 3143 3143 3143 3143 3143 3143 3143 3143 3143 3143 3115 3115 3115 3115 3115 3115 3115 3115 3115 3115 3115 3087 3087 3087 3087 3115 3087 3087 3087 3115 3115 3115 3115 3115 3115 3115 3143 3115 3087 3087 3059 3059 3087 3087 3059 3059 3059 3059 3087 3087 3087 3087 3087 3087 3115 3087 3087 3087 3059 3115 3143 3143 3143 3143 3143 3143 3143 3143 3143 3115 3115 3115 3115 3115 3115 3115 3115 3115 3115 3115 3115 3115 3115 3115</data></dframe>
</opencv_storage>
