<?xml version="1.0"?>
<opencv_storage>
<dframe type_id="opencv-matrix">
  <rows>35</rows>
  <cols>640</cols>
  <dt>w</dt>
  <data>
    0 0 0 0 0 0 0 0 0 0 0 0 0 0 0 0 0 0 0 0 0 0 0 0 0 0 0 0 0 0 0 0 0 0 0 0 0 0 0 0 0 0 0 0 0 0 0 0 0 0 0 0 0 0 0 0 0 0 0 0 0 0 0 0 0 0 0 0 0 0 1964 1975 1975 1975 1975 1975 1986 1975 1986 1986 1986 1986 1986 1998 1998 1998 1998 1998 1998 2009 2009 2021 2033 2033 2045 2045 2469 2487 2505 2487 2469 2469 2451 2451 2434 2434 2434 2434 2434 2434 2434 2434 3357 3357 3324 3324 3324 3324 3324 3293 3324 3324 3324 3324 3324 3324 3324 3324 3293 3293 3293 3293 3293 3293 3293 3293 3293 3293 3293 3293 3293 3293 3293 3293 3262 3293 3293 3293 3293 3293 3293 3293 3324 3293 3324 3324 3324 3324 3293 3293 3293 3324 3293 3293 3293 3293 3115 3115 3087 3059 3087 3115 3143 3143 3172 3201 3231 3262 3262 3293 3293 3293 3293 3293 3293 3293 3293 3293 3293 3293 3324 3324 3357 3357 3357 3357 3324 3357 3357 3357 3357 3357 3357 3357 3324 3324 3324 3324 3324 3324 3324 3357 3357 3357 3357 3357 3357 3357 3357 3357 3357 3357 3324 3324 0 1044 1044 1040 1040 1040 1034 1034 1031 1031 1028 1025 1022 1019 1019 1019 1019 1019 1019 1019 1019 1019 1019 1016 1016 1016 1016 1016 1019 1019 1019 1019 1019 1019 1022 1022 1022 1022 1025 1025 1028 1028 1031 1031 1031 1034 1034 1037 1044 1044 1044 1047 1050 1053 1056 1060 1060 1063 1066 1069 1073 1076 1079 1086 1090 1093 1093 1097 1097 0 0 0 0 0 0 0 0 0 0 0 0 0 0 0 0 636 636 636 636 636 636 636 636 636 636 635 635 635 635 635 635 635 635 635 635 635 635 635 635 635 635 636 636 636 636 636 636 636 636 636 636 636 637 636 636 636 637 637 637 637 637 638 638 638 638 638 638 638 638 638 638 639 638 639 639 639 639 641 639 641 641 641 641 641 641 641 641 641 641 641 641 641 641 641 641 641 642 642 642 643 642 642 643 643 643 643 644 644 644 644 644 644 644 644 644 644 644 644 644 644 645 645 645 645 645 645 647 647 647 647 647 647 647 648 648 648 648 649 648 649 649 649 649 650 650 650 650 650 649 649 648 649 649 649 649 650 650 650 650 650 650 649 650 650 650 650 651 651 651 653 653 653 653 653 653 653 654 654 654 654 654 654 654 654 654 654 654 655 655 655 656 656 658 656 658 658 656 656 656 656 656 656 656 656 658 658 656 658 658 658 658 658 658 658 658 658 658 658 658 658 658 658 658 658 658 659 659 660 660 660 660 660 661 661 661 661 0 0 0 0 0 0 0 0 0 0 0 0 0 0 0 0 0 0 0 0 0 0 0 0 0 0 0 0 0 0 0 0 0 0 0 0 0 0 0 0 0 0 0 0 0 0 0 0 0 0 0 3718 3679 3679 3679 3679 3679 3679 3679 3679 3679 3640 3640 3602 3602 3602 3565 3565 3528 3528 3528 3528 3528 3528 3528 3493 3458 3458 3458 3458 3458 3458 3423 3423 3423 3423 3390 3390 3390 3357 3357 3357 3357 3357 3324 3324 3293 3293 3293 3262 3262 3262 3262 3262 3262 3172 3172 3172 3143 3172
    0 0 0 0 0 0 0 0 0 0 0 0 0 0 0 0 0 0 0 0 0 0 0 0 0 0 0 0 0 0 0 0 0 0 0 0 0 0 0 0 0 0 0 0 0 0 0 0 0 0 0 0 0 0 0 0 0 0 0 0 0 0 0 0 0 0 0 0 1931 1952 1952 1975 1975 1975 1975 1975 1986 1986 1986 1986 1986 1986 1998 1998 1998 1998 1998 1998 1998 2009 2009 2009 2033 2021 2033 2469 2469 2487 2487 2487 2469 2487 2469 2451 2434 2434 2434 2417 2417 2434 2451 2451 3293 3293 3293 3293 3293 3293 3293 3293 3324 3324 3324 3324 3324 3324 3324 3293 3293 3293 3293 3293 3293 3293 3293 3293 3293 3293 3293 3293 3293 3293 3293 3293 3262 3293 3293 3293 3293 3293 3293 3293 3293 3293 3293 3293 3293 3293 3293 3293 3293 3293 3293 3293 3293 3293 3087 3087 3059 3059 3087 3115 3143 3143 3172 3201 3262 3262 3293 3293 3293 3293 3293 3293 3293 3293 3293 3293 3293 3324 3324 3324 3357 3357 3357 3357 3324 3357 3357 3357 3357 3357 3357 3324 3324 3324 3324 3324 3324 3324 3324 3357 3357 3357 3357 3357 3357 3357 3357 3357 3357 3357 3357 3357 0 1044 1044 1044 1044 1040 1037 1034 1034 1028 1028 1025 1022 1022 1019 1019 1019 1019 1019 1019 1019 1019 1019 1019 1019 1019 1016 1016 1019 1019 1019 1019 1019 1019 1022 1022 1022 1022 1022 1025 1025 1028 1031 1031 1031 1034 1037 1040 1044 1044 1047 1047 1050 1053 1056 1060 1063 1063 1066 1069 1073 1079 1083 1090 1093 1093 1097 1097 1100 0 0 0 0 0 0 0 0 0 0 0 0 0 0 0 0 636 636 636 636 636 636 636 636 636 636 635 635 635 636 636 635 635 635 635 635 635 635 635 635 635 635 636 636 636 636 636 636 636 636 636 636 636 637 636 636 637 637 637 637 637 638 638 638 638 639 639 639 639 639 639 639 639 639 639 639 639 641 641 641 641 641 641 641 641 641 641 641 641 641 641 642 642 642 642 642 642 642 642 643 643 643 643 643 643 644 644 644 644 644 644 644 645 644 644 644 644 644 645 645 645 645 645 647 647 647 647 647 647 647 648 648 648 648 648 648 649 649 649 649 649 649 649 649 650 650 650 650 650 649 649 649 649 649 650 650 650 651 653 653 653 650 649 650 651 650 651 651 651 653 653 653 653 653 653 653 653 654 654 654 654 654 654 654 654 654 654 654 655 655 655 656 656 658 658 658 658 656 656 656 656 656 656 656 656 658 658 658 658 658 658 658 658 659 658 659 658 658 658 658 658 656 658 658 658 659 660 660 661 661 661 661 661 661 661 661 661 0 0 0 0 0 0 0 0 0 0 0 0 0 0 0 0 0 0 0 0 0 0 0 0 0 0 0 0 0 0 0 0 0 0 0 0 0 0 0 0 0 0 0 0 0 0 0 0 0 0 0 3718 3679 3679 3679 3679 3718 3679 3679 3679 3679 3640 3640 3602 3602 3602 3565 3565 3528 3528 3528 3528 3528 3528 3528 3493 3458 3458 3458 3458 3458 3458 3423 3423 3423 3390 3390 3390 3357 3357 3357 3357 3357 3357 3357 3324 3293 3293 3293 3262 3262 3262 3262 3262 3262 3172 3231 3172 3172 3172
    0 0 0 0 0 0 0 0 0 0 0 0 0 0 0 0 0 0 0 0 0 0 0 0 0 0 0 0 0 0 0 0 0 0 0 0 0 0 0 0 0 0 0 0 0 0 0 0 0 0 0 0 0 0 0 0 0 0 0 0 0 0 0 0 0 0 0 0 1920 1931 1952 1975 1986 1975 1975 1975 1986 1986 1986 1986 1986 1986 1998 1998 1998 1998 1998 1998 1998 2009 1998 2009 2021 2021 2033 2487 2487 2487 2487 2469 2469 2469 2451 2434 2434 2434 2434 2434 2417 2451 2451 3293 3293 3293 3293 3293 3293 3293 3293 3293 3324 3324 3293 3293 3324 3293 3293 3293 3293 3293 3293 3293 3293 3293 3293 3293 3293 3293 3293 3293 3293 3293 3262 3262 3262 3262 3262 3293 3293 3293 3324 3293 3293 3293 3293 3293 3293 3293 3293 3293 3293 3293 3293 3293 3293 3262 3087 3087 3059 3059 3087 3115 3143 3143 3172 3172 3231 3262 3262 3293 3293 3293 3293 3293 3293 3293 3293 3293 3293 3324 3324 3357 3357 3357 3357 3357 3324 3324 3357 3357 3357 3357 3357 3324 3324 3324 3324 3324 3324 3324 3324 3357 3357 3357 3357 3357 3357 3357 3357 3357 3357 3357 0 0 0 1044 1044 1040 1040 1040 1037 1034 1034 1031 1028 1031 1022 1022 1022 1019 1019 1019 1019 1019 1019 1019 1019 1019 1019 1019 1016 1019 1019 1019 1019 1019 1019 1022 1022 1022 1022 1025 1025 1028 1028 1031 1031 1031 1031 1034 1037 1040 1040 1044 1047 1047 1050 1053 1056 1060 1063 1066 1069 1069 1076 1079 1083 1090 1093 1097 1097 1097 1100 0 0 0 0 0 0 0 0 0 0 0 0 0 0 0 0 636 636 636 636 636 636 636 636 636 636 636 636 636 636 636 636 636 635 635 635 635 635 635 635 636 636 636 636 636 636 636 636 636 636 636 636 636 637 637 637 637 637 637 638 638 638 639 639 639 639 639 639 639 639 639 639 639 639 641 641 641 641 641 641 641 641 641 641 641 641 641 641 642 642 642 642 642 642 642 642 642 643 643 643 643 644 644 644 643 644 644 644 644 644 645 645 645 644 644 645 645 645 645 645 645 647 647 647 647 647 647 648 647 648 648 648 648 648 649 649 649 649 649 649 649 649 649 650 650 650 650 650 650 649 649 649 649 650 650 650 650 651 653 653 651 651 651 651 651 651 651 653 653 653 653 653 653 653 653 653 654 654 654 654 654 654 654 654 654 654 654 655 655 655 655 656 658 658 658 658 658 658 658 658 658 656 658 658 658 658 659 658 658 658 658 659 659 659 658 659 658 659 659 658 658 658 658 658 658 659 660 661 661 661 661 661 661 661 661 663 663 0 0 0 0 0 0 0 0 0 0 0 0 0 0 0 0 0 0 0 0 0 0 0 0 0 0 0 0 0 0 0 0 0 0 0 0 0 0 0 0 0 0 0 0 0 0 0 0 0 0 0 3679 3679 3679 3679 3679 3718 3718 3718 3679 3679 3679 3640 3602 3602 3602 3565 3565 3565 3565 3528 3528 3528 3493 3493 3458 3458 3458 3458 3423 3423 3423 3423 3423 3423 3390 3390 3390 3357 3357 3357 3357 3357 3357 3324 3324 3293 3293 3262 3262 3262 3262 3262 3262 3262 3231 3231 3172 3172 3143
    0 0 0 0 0 0 0 0 0 0 0 0 0 0 0 0 0 0 0 0 0 0 0 0 0 0 0 0 0 0 0 0 0 0 0 0 0 0 0 0 0 0 0 0 0 0 0 0 0 0 0 0 0 0 0 0 0 0 0 0 0 0 0 0 0 0 0 0 1920 1941 1952 1986 1986 1986 1975 1975 1986 1986 1986 1986 1986 1986 1998 1998 1998 1998 1998 1998 1998 1998 1998 1998 2021 2021 2021 2487 2487 2487 2487 2469 2469 2469 2451 2434 2434 2434 2434 2434 2434 2451 2451 2451 3324 3324 3293 3293 3293 3293 3293 3293 3293 3293 3293 3293 3293 3293 3293 3293 3293 3293 3293 3293 3293 3293 3293 3293 3293 3293 3293 3293 3293 3293 3293 3262 3262 3262 3262 3293 3293 3293 3293 3293 3293 3293 3324 3293 3293 3293 3293 3293 3293 3293 3293 3293 3293 3262 3059 3087 3059 3059 3087 3115 3143 3143 3172 3172 3201 3231 3262 3262 3293 3293 3293 3293 3293 3293 3293 3293 3293 3324 3357 3357 3390 3357 3390 3357 3324 3324 3324 3324 3324 3357 3324 3324 3324 3324 3324 3324 3324 3324 3324 3324 3324 3324 3357 3357 3357 3357 3357 3357 3390 3390 3390 0 0 1044 1044 1044 1044 1040 1037 1037 1034 1034 1031 1028 1025 1025 1022 1022 1022 1022 1022 1019 1019 1019 1019 1019 1019 1019 1019 1019 1019 1019 1019 1019 1019 1022 1022 1022 1022 1022 1025 1025 1028 1031 1031 1031 1034 1034 1037 1040 1044 1044 1047 1047 1050 1056 1056 1060 1063 1066 1069 1073 1076 1083 1086 1090 1093 1097 1097 1097 1100 0 0 0 0 0 0 0 0 0 0 0 0 0 0 0 0 0 636 636 637 636 637 637 637 637 637 636 636 636 636 636 636 636 636 636 636 635 635 635 636 636 636 636 636 636 636 637 637 637 637 636 637 637 637 637 637 637 637 638 638 638 638 639 639 639 639 639 639 639 639 639 641 641 641 641 641 641 642 641 642 642 642 642 641 642 642 642 642 642 642 643 643 643 643 643 643 643 643 643 644 644 644 644 644 644 644 645 645 645 645 645 645 645 645 645 645 645 645 647 647 647 647 647 647 647 647 647 647 647 648 648 649 649 649 649 649 650 649 649 649 649 649 649 650 650 650 650 651 651 650 650 650 650 650 650 650 650 653 653 653 653 651 651 653 653 651 653 653 653 653 653 653 653 653 653 654 654 654 654 654 654 655 655 655 654 654 655 655 655 655 656 656 658 658 658 658 658 658 658 658 658 658 658 658 658 658 659 659 659 659 659 659 659 659 659 659 659 659 659 659 659 658 658 658 659 660 660 661 661 661 661 661 661 661 663 663 663 0 0 0 0 0 0 0 0 0 0 0 0 0 0 0 0 0 0 0 0 0 0 0 0 0 0 0 0 0 0 0 0 0 0 0 0 0 0 0 0 0 0 0 0 0 0 0 0 0 0 3602 3640 3640 3679 3679 3679 3679 3679 3718 3679 3679 3640 3640 3602 3602 3565 3565 3565 3565 3565 3528 3528 3528 3493 3493 3458 3458 3458 3423 3423 3423 3423 3423 3423 3423 3390 3390 3390 3357 3357 3357 3357 3357 3357 3357 3324 3293 3293 3293 3262 3262 3262 3262 3262 3262 3201 3201 3172 3143 3115
    0 0 0 0 0 0 0 0 0 0 0 0 0 0 0 0 0 0 0 0 0 0 0 0 0 0 0 0 0 0 0 0 0 0 0 0 0 0 0 0 0 0 0 0 0 0 0 0 0 0 0 0 0 0 0 0 0 0 0 0 0 0 0 0 0 0 0 1920 1920 1952 1964 1986 1986 1986 1986 1975 1986 1986 1986 1986 1986 1986 1986 1998 1986 1998 1998 1998 1998 1998 1998 1998 2009 2021 2021 2505 2505 2505 2505 2487 2469 2451 2451 2434 2434 2434 2434 2434 2434 2451 2469 3262 3262 3262 3293 3293 3293 3293 3293 3293 3293 3293 3293 3293 3293 3293 3293 3293 3293 3293 3293 3293 3293 3293 3293 3293 3293 3293 3293 3293 3293 3293 3293 3262 3262 3262 3262 3262 3293 3293 3293 3293 3293 3293 3293 3293 3293 3293 3293 3293 3293 3293 3293 3262 3262 3231 3115 3087 3059 3059 3087 3115 3143 3115 3143 3143 3172 3201 3231 3231 3262 3262 3293 3293 3293 3293 3293 3293 3357 3390 3324 3357 3357 3357 3357 3357 3357 3357 3324 3324 3324 3357 3324 3324 3324 3324 3293 3293 3293 3324 3324 3324 3324 3324 3357 3357 3357 3357 3357 3357 3390 0 0 3033 0 1044 1044 1044 1044 1044 1040 1037 1037 1034 1031 1028 1025 1025 1022 1022 1022 1022 1022 1022 1022 1022 1019 1019 1019 1019 1019 1019 1019 1019 1019 1019 1019 1022 1022 1022 1022 1022 1025 1028 1031 1031 1031 1034 1034 1037 1037 1040 1044 1044 1047 1050 1053 1056 1056 1060 1063 1066 1069 1073 1079 1083 1086 1093 1093 1097 1097 1097 1100 0 0 0 0 0 0 0 0 0 0 0 0 0 0 0 0 0 636 636 637 636 637 637 637 637 637 636 636 636 636 636 636 636 636 636 635 635 635 635 636 636 636 636 636 637 637 637 637 637 637 637 637 637 638 637 637 638 638 638 638 638 638 639 639 639 639 641 641 641 641 641 641 641 641 642 642 642 642 642 642 642 642 642 642 643 643 643 643 643 643 644 644 644 644 644 644 644 644 644 644 644 644 644 644 644 644 645 645 645 645 645 645 645 645 645 645 647 647 647 647 648 648 648 648 648 648 648 648 648 648 649 649 649 649 649 649 649 649 649 649 649 650 649 650 650 650 651 651 651 650 650 650 650 651 651 651 653 653 653 653 653 653 653 653 653 653 653 653 653 653 653 654 654 653 654 654 654 654 654 654 654 654 655 654 654 654 654 655 655 655 656 656 658 658 658 659 658 658 658 658 658 658 658 658 658 659 659 659 659 659 659 659 659 659 659 659 659 660 659 660 659 659 659 659 659 660 660 661 661 661 661 663 663 663 663 663 663 0 0 0 0 0 0 0 0 0 0 0 0 0 0 0 0 0 0 0 0 0 0 0 0 0 0 0 0 0 0 0 0 0 0 0 0 0 0 0 0 0 0 0 0 0 0 0 0 0 0 0 3640 3640 3640 3679 3679 3679 3679 3679 3679 3679 3679 3640 3602 3602 3565 3565 3565 3565 3528 3528 3528 3528 3493 3493 3458 3423 3458 3423 3423 3423 3423 3423 3423 3423 3390 3390 3390 3357 3357 3357 3357 3357 3357 3357 3324 3293 3293 3293 3262 3262 3262 3262 3231 3231 3201 3172 3143 3143 3115
    0 0 0 0 0 0 0 0 0 0 0 0 0 0 0 0 0 0 0 0 0 0 0 0 0 0 0 0 0 0 0 0 0 0 0 0 0 0 0 0 0 0 0 0 0 0 0 0 0 0 0 0 0 0 0 0 0 0 0 0 0 0 0 0 0 0 0 1931 1941 1964 1975 1986 1986 1975 1975 1975 1986 1986 1986 1986 1986 1986 1986 1986 1986 1998 1998 1998 1998 1998 1998 2009 2009 2021 2021 2487 2487 2487 2469 2451 2434 2434 2417 2417 2417 2417 2434 2434 2434 2451 2451 2451 3293 3293 3293 3293 3293 3293 3293 3293 3293 3293 3293 3293 3293 3293 3293 3293 3293 3293 3293 3293 3293 3293 3293 3293 3293 3293 3293 3293 3293 3293 3293 3293 3293 3262 3262 3293 3293 3293 3293 3293 3293 3293 3324 3293 3293 3293 3293 3293 3293 3293 3293 3293 3262 3262 3087 3059 3059 3059 3059 3115 3115 3115 3143 3143 3143 3172 3201 3201 3201 3262 3262 3262 3262 3262 3262 3293 3293 3293 3293 3390 3390 3390 3357 3357 3357 3357 3324 3324 3324 3324 3324 3293 3293 3262 3262 3262 3262 3293 3324 3324 3324 3324 3357 3357 3357 3324 3357 3357 3357 3033 3033 3033 3033 3033 1044 1044 1047 1044 1040 1040 1037 1037 1034 1028 1025 1025 1025 1022 1022 1022 1022 1022 1022 1019 1019 1019 1019 1019 1019 1019 1019 1019 1019 1019 1019 1022 1022 1022 1025 1025 1028 1028 1031 1031 1034 1034 1037 1037 1040 1044 1044 1047 1047 1050 1053 1056 1056 1060 1063 1066 1073 1076 1083 1086 1090 1093 1097 1097 1097 1100 1100 0 0 0 0 0 0 0 0 0 0 0 0 0 0 0 0 0 0 636 637 637 637 637 637 637 637 636 636 636 636 636 636 636 636 636 636 636 635 636 636 636 636 636 636 637 637 637 637 637 637 637 638 638 638 638 638 638 638 638 639 639 639 639 639 639 641 641 641 641 641 641 641 641 642 642 642 642 642 642 642 642 642 642 642 643 643 643 643 644 644 644 644 644 644 644 644 644 644 644 644 644 645 645 645 644 645 645 645 645 645 645 647 647 645 645 645 647 647 647 647 648 648 648 648 648 649 648 649 648 649 649 649 649 649 649 649 649 649 649 649 649 649 650 650 651 651 651 651 651 650 650 650 650 651 651 653 653 653 653 653 653 653 653 653 653 653 653 653 653 653 654 654 654 654 654 654 654 654 654 655 654 654 655 655 654 654 655 655 655 655 656 656 658 658 658 658 658 658 658 658 658 658 658 658 658 659 659 659 659 659 659 659 659 660 659 659 659 659 659 659 659 658 659 660 659 660 660 661 661 661 663 663 663 663 663 664 664 0 0 0 0 0 0 0 0 0 0 0 0 0 0 0 0 0 0 0 0 0 0 0 0 0 0 0 0 0 0 0 0 0 0 0 0 0 0 0 0 0 0 0 0 0 0 0 0 0 0 0 0 3640 3640 3679 3679 3679 3679 3679 3679 3679 3679 3640 3602 3602 3565 3565 3565 3565 3528 3528 3528 3528 3493 3493 3458 3423 3458 3423 3423 3423 3458 3423 3423 3423 3390 3390 3357 3357 3357 3324 3357 3357 3357 3357 3324 3293 3293 3293 3262 3262 3262 3262 3231 3231 3201 3172 3143 3087 3087
    0 0 0 0 0 0 0 0 0 0 0 0 0 0 0 0 0 0 0 0 0 0 0 0 0 0 0 0 0 0 0 0 0 0 0 0 0 0 0 0 0 0 0 0 0 0 0 0 0 0 0 0 0 0 0 0 0 0 0 0 0 0 0 0 0 0 0 1931 1941 1964 1975 1986 1986 1975 1975 1975 1986 1975 1986 1986 1986 1986 1998 1998 1998 1998 1998 1998 1998 2009 1998 2009 2009 2021 2033 2451 2451 2451 2451 2434 2417 2417 2400 2400 2400 2400 2417 2417 2417 2451 2451 3293 3293 3262 3293 3293 3293 3293 3293 3293 3293 3293 3293 3262 3293 3293 3293 3293 3293 3293 3293 3293 3293 3293 3293 3293 3293 3293 3293 3293 3293 3293 3293 3293 3293 3293 3293 3293 3293 3293 3293 3293 3293 3293 3324 3293 3293 3293 3293 3293 3293 3293 3293 3262 3262 3231 3059 3059 3059 3059 3059 3087 3087 3087 3115 3115 3115 3115 3143 3115 3115 3087 3059 3115 3115 2980 2980 3006 3033 3059 3059 3059 3357 3357 3357 3357 3357 3357 3324 3324 3324 3324 3324 3293 3231 3231 3231 3231 3262 3262 3262 3262 3262 3293 3324 3324 3357 3324 3324 3324 3033 3033 3033 3033 3033 3033 1047 1047 1047 1047 1044 1040 1040 1037 1034 1031 1028 1025 1025 1022 1022 1022 1022 1022 1022 1019 1019 1019 1019 1019 1019 1016 1019 1019 1019 1019 1019 1022 1022 1022 1025 1025 1028 1028 1031 1034 1034 1034 1037 1037 1040 1044 1044 1047 1047 1050 1053 1056 1060 1063 1063 1069 1076 1079 1083 1086 1090 1093 1093 1097 1097 1100 1100 0 0 0 0 0 0 0 0 0 0 0 0 0 0 0 0 0 0 636 636 636 637 637 637 637 637 636 636 636 637 637 637 637 636 637 637 636 636 636 636 636 636 636 636 637 637 637 638 637 637 638 638 638 638 638 638 639 639 639 639 639 639 639 639 639 641 641 641 641 641 641 642 642 642 642 642 642 643 643 643 643 643 643 643 643 643 644 644 644 644 644 644 644 644 644 644 644 644 644 644 644 645 645 645 645 645 645 645 645 645 645 647 647 645 647 647 647 647 647 648 648 648 649 649 649 649 649 649 649 649 649 650 649 649 650 650 650 650 650 649 650 650 650 651 651 651 651 651 651 650 650 651 651 651 651 653 653 653 653 653 653 653 653 653 653 653 654 654 654 653 654 654 654 654 654 654 654 654 655 655 655 655 655 655 655 655 655 655 655 656 656 656 658 658 658 658 658 658 658 658 658 658 658 658 659 659 659 659 659 659 659 659 660 660 659 659 659 659 659 659 659 659 660 661 660 661 661 663 663 663 663 663 663 663 663 664 0 0 0 0 0 0 0 0 0 0 0 0 0 0 0 0 0 0 0 0 0 0 0 0 0 0 0 0 0 0 0 0 0 0 0 0 0 0 0 0 0 0 0 0 0 0 0 0 0 0 0 0 3640 3640 3640 3640 3679 3679 3679 3679 3679 3679 3679 3640 3602 3602 3565 3565 3565 3528 3528 3528 3528 3528 3493 3493 3458 3423 3423 3423 3423 3423 3423 3423 3423 3423 3390 3390 3357 3357 3324 3324 3357 3357 3357 3324 3324 3324 3324 3293 3262 3262 3262 3262 3231 3231 3201 3172 3143 3087 3087
    0 0 0 0 0 0 0 0 0 0 0 0 0 0 0 0 0 0 0 0 0 0 0 0 0 0 0 0 0 0 0 0 0 0 0 0 0 0 0 0 0 0 0 0 0 0 0 0 0 0 0 0 0 0 0 0 0 0 0 0 0 0 0 0 0 0 1931 1941 1941 1964 1964 1975 1975 1975 1975 1975 1975 1975 1975 1986 1986 1986 1986 1986 1986 1998 1998 1998 1998 2009 1998 2009 2009 2021 2021 2451 2451 2451 2434 2417 2400 2400 2400 2400 2400 2400 2417 2417 2434 2434 2434 3293 3293 3262 3262 3293 3293 3293 3293 3293 3293 3293 3293 3262 3293 3293 3293 3293 3293 3293 3293 3293 3293 3293 3293 3293 3293 3293 3293 3293 3293 3293 3293 3293 3293 3293 3262 3262 3262 3293 3293 3293 3293 3293 3293 3293 3293 3293 3293 3293 3293 3293 3262 3262 3262 3262 3033 3033 3059 3059 3059 3087 3059 3087 3087 3087 3059 3087 3059 3059 3059 3033 3033 3033 3033 2980 2980 3006 3033 3059 3059 3059 3087 3390 3357 3423 3390 3324 3324 3324 3324 3324 3033 3059 3033 3033 3033 3201 3201 3201 3201 3201 3201 3231 3262 3262 3143 3143 3143 3059 3033 3033 3033 3033 3033 3033 3059 1044 1047 1047 1044 1044 1040 1037 1034 1031 1025 1025 1025 1022 1022 1022 1019 1019 1019 1019 1019 1019 1019 1019 1016 1016 1019 1019 1019 1019 1019 1022 1022 1022 1025 1025 1028 1031 1034 1034 1034 1037 1037 1040 1040 1044 1044 1047 1047 1050 1053 1056 1060 1063 1069 1073 1076 1079 1083 1086 1090 1093 1097 1097 1097 1100 1100 0 0 0 0 0 0 0 0 0 0 0 0 0 0 0 0 0 0 635 637 637 637 637 637 637 637 636 636 637 637 638 637 637 637 637 637 636 636 636 636 636 637 637 637 637 638 638 638 638 638 638 638 638 638 638 638 639 639 639 639 639 639 639 639 641 641 641 641 641 641 641 642 642 642 643 643 643 643 643 643 643 644 643 643 643 643 644 644 644 644 644 644 644 644 644 644 644 644 644 644 644 645 645 645 645 645 645 645 645 645 647 647 647 647 647 647 647 647 648 648 649 649 649 649 649 649 649 649 649 649 649 650 650 649 650 650 650 650 650 650 650 651 651 651 651 651 651 651 651 650 651 651 651 651 653 653 651 653 653 651 653 653 653 653 653 653 654 654 654 654 654 654 654 654 654 654 654 654 655 655 655 655 655 654 654 654 655 655 655 656 656 658 658 658 658 658 658 658 658 658 658 658 658 658 659 659 659 659 659 659 659 659 660 660 659 659 660 659 659 659 659 659 660 661 660 661 663 663 663 663 663 664 664 663 664 664 0 0 0 0 0 0 0 0 0 0 0 0 0 0 0 0 0 0 0 0 0 0 0 0 0 0 0 0 0 0 0 0 0 0 0 0 0 0 0 0 0 0 0 0 0 0 0 0 0 3528 3528 3565 3640 3640 3640 3640 3679 3679 3679 3679 3679 3679 3679 3640 3640 3602 3565 3565 3565 3565 3565 3565 3528 3528 3528 3528 3493 3458 3423 3423 3423 3423 3423 3423 3423 3423 3390 3390 3357 3324 3324 3324 3324 3324 3324 3324 3324 3293 3293 3262 3262 3262 3231 3231 3231 3201 3172 3172 3143 3115 3087
    0 0 0 0 0 0 0 0 0 0 0 0 0 0 0 0 0 0 0 0 0 0 0 0 0 0 0 0 0 0 0 0 0 0 0 0 0 0 0 0 0 0 0 0 0 0 0 0 0 0 0 0 0 0 0 0 0 0 0 0 0 0 0 0 0 0 0 1941 1952 1964 1975 1975 1986 1975 1975 1975 1975 1975 1975 1975 1986 1986 1986 1986 1986 1998 1998 1998 1998 2009 2009 2009 2009 2021 2021 2451 2451 2451 2451 2434 2417 2400 2417 2400 2417 2417 2417 2417 2434 2451 3293 3293 3293 3293 3293 3293 3293 3293 3293 3262 3293 3293 3293 3262 3293 3293 3293 3293 3293 3293 3293 3293 3293 3293 3293 3293 3293 3293 3293 3293 3293 3293 3293 3293 3293 3293 3262 3262 3262 3293 3293 3293 3293 3293 3293 3293 3293 3293 3293 3293 3293 3293 3262 3262 3231 3059 3059 3059 3059 3059 3059 3087 3059 3059 3059 3059 3033 3059 3033 3033 3033 3033 3006 3033 3033 3006 3006 3006 3033 3033 3033 3059 3087 3087 3087 3115 3143 3201 3293 3087 3087 3087 3033 3059 3033 3033 3033 3059 3033 3006 3033 3033 3033 3033 3033 3033 3033 3059 3059 3059 3059 3033 3033 3033 3033 3033 3059 1044 1047 1047 1044 1044 1040 1040 1034 1031 1028 1025 1025 1022 1022 1019 1019 1019 1019 1019 1019 1019 1016 1016 1016 1016 1019 1019 1019 1019 1019 1019 1022 1022 1025 1028 1028 1031 1034 1034 1034 1037 1040 1040 1044 1044 1044 1047 1050 1053 1056 1056 1060 1066 1069 1073 1079 1083 1083 1086 1090 1093 1097 1097 1097 1100 1100 0 0 0 0 0 0 0 0 0 0 0 0 0 0 0 0 0 0 636 637 637 637 637 637 637 638 637 637 637 638 638 638 638 637 638 637 637 636 636 636 637 637 637 637 638 638 638 639 638 638 639 638 639 639 639 639 639 639 639 639 639 641 641 641 641 641 641 642 642 642 642 642 642 642 643 643 643 643 643 643 643 644 643 643 643 643 644 643 644 644 644 644 644 644 644 644 644 644 644 644 644 645 645 645 645 645 645 645 645 647 647 647 647 647 648 647 648 648 648 648 649 649 649 649 649 649 649 649 649 649 649 650 650 650 650 650 650 650 650 651 651 651 651 651 651 651 651 651 653 651 651 651 651 653 653 653 653 653 653 653 653 653 653 653 654 654 654 654 654 654 654 654 654 654 654 655 654 655 655 655 655 655 655 654 654 654 654 655 655 655 656 658 658 658 658 658 659 659 659 658 658 659 658 659 659 659 659 659 659 659 660 660 660 660 659 660 660 660 659 660 660 659 660 661 661 663 663 663 663 663 664 664 664 664 664 0 0 0 0 0 0 0 0 0 0 0 0 0 0 0 0 0 0 0 0 0 0 0 0 0 0 0 0 0 0 0 0 0 0 0 0 0 0 0 0 0 0 0 0 0 0 0 0 0 0 0 0 3528 3640 3602 3602 3640 3679 3679 3679 3679 3679 3679 3679 3640 3602 3565 3565 3565 3565 3565 3565 3565 3528 3528 3528 3528 3493 3458 3458 3423 3423 3423 3423 3423 3423 3423 3390 3390 3357 3324 3324 3324 3324 3324 3324 3293 3293 3293 3293 3262 3262 3262 3231 3231 3201 3172 3172 3143 3143 3115 3115
    0 0 0 0 0 0 0 0 0 0 0 0 0 0 0 0 0 0 0 0 0 0 0 0 0 0 0 0 0 0 0 0 0 0 0 0 0 0 0 0 0 0 0 0 0 0 0 0 0 0 0 0 0 0 0 0 0 0 0 0 0 0 0 0 0 0 0 0 1952 1964 1975 1975 1975 1975 1975 1975 1975 1975 1975 1975 1986 1986 1986 1986 1986 1998 1998 1998 1998 2009 2009 2009 2009 2033 2033 2451 2451 2451 2434 2434 2417 2417 2400 2400 2400 2400 2417 2434 2434 2451 3262 3293 3293 3293 3293 3293 3293 3293 3293 3262 3293 3293 3293 3262 3293 3293 3293 3293 3293 3293 3293 3293 3293 3293 3293 3293 3293 3293 3293 3293 3293 3293 3293 3293 3293 3293 3262 3262 3262 3262 3262 3293 3293 3293 3293 3293 3293 3293 3293 3293 3293 3293 3262 3262 3231 3059 3059 3059 3059 3059 3059 3059 3059 3059 3059 3033 3033 3033 3033 3006 3033 3033 3033 3033 3033 3006 3006 3006 3033 3006 3033 3033 3059 3059 3059 3059 3033 3033 3033 3006 3033 3033 3006 3006 3006 3033 3033 3033 3006 3006 3006 3033 3033 3033 3033 3033 3033 3059 3059 3059 3059 3033 3033 3033 3033 3059 3059 1047 1047 1047 1044 1044 1040 1040 1037 1034 1031 1025 1025 1022 1022 1019 1019 1019 1019 1019 1019 1019 1019 1016 1016 1016 1016 1016 1019 1019 1019 1019 1022 1022 1025 1028 1028 1031 1034 1034 1034 1037 1040 1040 1044 1044 1047 1047 1050 1053 1056 1060 1063 1069 1073 1076 1079 1083 1086 1086 1090 1093 1097 1097 1100 1104 1104 1104 0 0 0 0 0 0 0 0 0 0 0 0 0 0 0 0 0 0 637 637 638 637 638 638 638 638 638 638 639 639 639 638 638 638 638 637 637 637 637 637 638 638 638 638 639 639 639 639 639 639 639 639 639 639 639 639 641 639 641 641 641 641 641 641 641 642 642 642 642 642 643 643 643 643 643 643 643 644 644 644 644 644 644 644 644 644 644 644 644 644 644 644 644 644 644 644 644 644 645 645 645 645 645 645 645 645 645 645 647 647 647 647 647 648 648 648 648 649 649 649 649 649 649 649 649 649 650 650 650 650 650 650 650 650 650 650 650 651 651 651 651 653 653 653 653 653 653 653 651 651 653 653 653 653 653 653 653 653 653 653 653 654 654 654 654 654 654 654 654 654 654 655 654 654 655 655 656 655 655 656 655 655 655 655 654 655 655 655 656 658 658 658 658 658 659 659 659 659 659 659 659 659 659 659 659 660 660 659 660 660 659 660 660 659 659 660 660 660 660 660 660 661 663 661 663 663 663 664 664 664 664 664 664 0 0 0 0 0 0 0 0 0 0 0 0 0 0 0 0 0 0 0 0 0 0 0 0 0 0 0 0 0 0 0 0 0 0 0 0 0 0 0 0 0 0 0 0 0 0 0 0 0 0 0 0 0 3565 3602 3602 3602 3640 3640 3679 3679 3679 3679 3679 3679 3640 3602 3602 3565 3565 3565 3565 3565 3565 3528 3528 3528 3528 3493 3458 3458 3458 3458 3423 3423 3423 3423 3423 3390 3390 3357 3324 3324 3324 3324 3293 3293 3293 3293 3293 3293 3262 3262 3262 3231 3231 3201 3172 3143 3143 3115 3115 3115
    0 0 0 0 0 0 0 0 0 0 0 0 0 0 0 0 0 0 0 0 0 0 0 0 0 0 0 0 0 0 0 0 0 0 0 0 0 0 0 0 0 0 0 0 0 0 0 0 0 0 0 0 0 0 0 0 0 0 0 0 0 0 0 0 0 0 0 0 1964 1964 1964 1975 1975 1964 1964 1975 1964 1975 1975 1975 1975 1975 1986 1986 1986 1986 1998 1998 1998 2009 2009 2009 2009 2021 2451 2451 2451 2451 2434 2434 2417 2417 2400 2400 2400 2400 2400 2400 2400 3262 3262 3262 3262 3293 3293 3293 3293 3293 3293 3262 3293 3293 3293 3293 3293 3293 3293 3293 3293 3293 3293 3293 3293 3293 3293 3293 3293 3293 3293 3293 3293 3293 3293 3293 3293 3293 3262 3262 3262 3262 3262 3262 3293 3293 3293 3293 3293 3293 3293 3293 3293 3293 3262 3262 3231 3087 3087 3059 3059 3059 3059 3059 3059 3059 3033 3033 3006 3033 3033 3006 3033 3033 3033 3033 3059 3033 3033 3033 3033 3033 3033 3033 3059 3059 3059 3059 3033 3033 3033 3006 3006 3033 3006 3006 3006 3033 3033 3033 3006 3033 3033 3033 3033 3033 3033 3033 3033 3033 3059 3059 3059 3033 3033 3059 3059 3059 3059 3115 1047 1047 1047 1044 1044 1040 1037 1034 1031 1028 1025 1022 1022 1019 1019 1019 1019 1019 1019 1019 1019 1016 1016 1016 1016 1016 1016 1019 1019 1019 1022 1022 1025 1028 1031 1031 1034 1034 1037 1040 1040 1044 1044 1047 1047 1050 1053 1053 1060 1060 1066 1069 1073 1079 1083 1083 1086 1090 1090 1093 1097 1100 1104 1107 1107 1107 1100 0 0 0 0 0 0 0 0 0 0 0 0 0 0 0 0 637 637 637 638 638 638 638 639 638 638 638 639 639 639 638 638 638 638 638 637 638 638 638 638 638 638 639 639 639 639 639 639 639 639 639 639 639 639 639 641 641 641 641 641 641 641 641 641 642 642 642 642 642 643 643 643 643 643 643 643 644 644 644 644 644 644 644 644 644 644 644 644 644 645 645 645 644 645 645 645 645 645 645 645 645 645 647 647 645 647 647 647 647 647 648 648 648 648 648 649 649 649 649 649 649 649 650 650 650 650 650 650 650 650 650 650 650 650 650 650 651 651 651 651 653 653 653 653 653 654 654 653 653 653 653 653 653 653 653 653 654 653 653 653 654 654 654 654 654 654 655 654 654 655 655 655 655 655 656 656 656 656 658 658 658 656 655 655 655 656 656 656 658 658 658 658 658 659 659 659 659 659 659 660 660 660 660 659 660 660 659 660 660 660 660 661 659 660 661 661 660 661 660 661 661 663 663 663 663 664 664 664 664 664 664 664 0 0 0 0 0 0 0 0 0 0 0 0 0 0 0 0 0 0 0 0 0 0 0 0 0 0 0 0 0 0 0 0 0 0 0 0 0 0 0 0 0 0 0 0 0 0 0 0 0 0 0 0 0 3565 3602 3602 3602 3640 3640 3640 3679 3640 3640 3640 3640 3640 3602 3565 3565 3565 3565 3565 3565 3565 3528 3565 3528 3528 3528 3493 3458 3458 3458 3458 3423 3423 3423 3423 3390 3390 3357 3324 3324 3324 3324 3293 3293 3293 3293 3293 3293 3262 3262 3262 3262 3231 3201 3201 3172 3143 3143 3143 3115
    0 0 0 0 0 0 0 0 0 0 0 0 0 0 0 0 0 0 0 0 0 0 0 0 0 0 0 0 0 0 0 0 0 0 0 0 0 0 0 0 0 0 0 0 0 0 0 0 0 0 0 0 0 0 0 0 0 0 0 0 0 0 0 0 0 0 0 0 1952 1964 1964 1964 1964 1964 1964 1964 1964 1964 1964 1975 1975 1975 1986 1986 1986 1986 1998 1998 1998 2009 2009 2009 2009 2021 2021 2434 2434 2434 2434 2434 2417 2417 2400 2400 2400 2384 2384 2384 3262 3262 3262 3262 3262 3262 3293 3293 3293 3293 3293 3293 3293 3293 3293 3293 3293 3293 3293 3293 3293 3293 3293 3293 3293 3262 3293 3293 3293 3293 3293 3293 3293 3293 3293 3293 3293 3293 3262 3262 3262 3262 3262 3262 3262 3262 3293 3293 3293 3262 3262 3293 3262 3293 3262 3262 3231 3115 3115 3059 3059 3059 3059 3059 3059 3059 3033 3033 3006 3033 3033 3033 3033 3059 3059 3059 3087 3059 3059 3059 3059 3059 3059 3059 3059 3059 3059 3059 3006 3006 3006 3006 3006 3006 3006 3006 3006 3033 3033 3033 3006 3033 3006 3006 3006 3006 3033 3006 3033 3033 3033 3059 3059 3033 3059 3059 3059 3059 3059 3087 1047 1050 1047 1044 1040 1040 1040 1034 1031 1028 1025 1019 1019 1019 1019 1019 1019 1019 1016 1016 1016 1016 1016 1016 1016 1016 1016 1019 1019 1019 1022 1022 1025 1028 1031 1031 1034 1037 1037 1040 1044 1044 1047 1047 1047 1050 1053 1056 1060 1063 1069 1073 1076 1079 1083 1086 1086 1090 1093 1093 1097 1100 1104 1107 1107 1107 1111 0 0 0 0 0 0 0 0 0 0 0 0 0 0 0 0 637 637 638 638 638 638 639 639 638 638 638 639 639 639 639 638 639 638 638 638 638 638 638 638 638 639 639 639 639 639 639 639 639 639 639 639 639 639 639 641 641 641 641 641 641 641 642 642 642 643 643 643 643 643 643 643 643 643 643 643 644 644 644 644 644 644 644 644 644 644 644 644 645 645 645 645 645 645 645 645 645 645 645 645 645 645 647 647 647 647 647 647 647 648 648 648 649 649 649 649 649 649 649 649 649 650 650 650 650 650 650 650 650 650 650 650 650 650 650 650 651 651 653 653 653 654 654 654 654 654 654 653 653 653 653 653 653 654 654 654 654 654 654 654 654 654 654 654 654 654 655 655 655 655 656 656 656 656 656 656 656 658 658 658 658 658 656 656 656 658 658 658 658 658 658 658 658 659 659 659 659 659 660 660 660 660 660 660 660 660 659 660 661 660 661 661 661 661 661 661 660 661 660 661 661 663 663 663 663 664 664 664 664 664 665 665 0 0 0 0 0 0 0 0 0 0 0 0 0 0 0 0 0 0 0 0 0 0 0 0 0 0 0 0 0 0 0 0 0 0 0 0 0 0 0 0 0 0 0 0 0 0 0 0 0 0 0 0 0 3565 3602 3602 3602 3602 3640 3640 3679 3640 3640 3640 3640 3640 3602 3565 3565 3565 3565 3565 3565 3565 3565 3565 3565 3565 3528 3493 3493 3493 3458 3458 3458 3423 3423 3423 3423 3390 3390 3324 3324 3324 3324 3293 3293 3293 3293 3293 3293 3262 3262 3262 3262 3231 3201 3201 3172 3172 3143 3143 3115
    0 0 0 0 0 0 0 0 0 0 0 0 0 0 0 0 0 0 0 0 0 0 0 0 0 0 0 0 0 0 0 0 0 0 0 0 0 0 0 0 0 0 0 0 0 0 0 0 0 0 0 0 0 0 0 0 0 0 0 0 0 0 0 0 0 0 0 0 0 1952 1952 1964 1964 1952 1952 1964 1964 1964 1975 1975 1975 1975 1986 1986 1986 1998 1998 1998 1998 2009 2009 2009 2009 2009 2451 2434 2434 2434 2417 2417 2400 2400 2400 2384 2400 2384 2384 3262 3262 3293 3262 3293 3293 3293 3293 3293 3293 3293 3293 3293 3293 3293 3293 3293 3293 3293 3293 3293 3293 3293 3293 3293 3293 3293 3293 3293 3293 3293 3293 3293 3293 3293 3293 3293 3293 3293 3262 3262 3262 3262 3262 3262 3262 3293 3293 3293 3293 3262 3262 3293 3262 3293 3262 3262 3262 3231 3059 3059 3059 3059 3059 3059 3059 3059 3059 3059 3033 3059 3059 3059 3087 3087 3087 3087 3115 3115 3115 3087 3087 3087 3087 3087 3087 3059 3059 3059 3033 3033 3006 3006 3006 3006 3006 3006 3006 3033 3033 3059 3033 3033 3033 3033 3006 3033 3033 3033 3033 3033 3059 3059 3087 3059 3059 3087 3087 3087 3087 3115 1047 1047 1047 1044 1044 1040 1040 1034 1031 1025 1022 1022 1022 1019 1019 1019 1019 1019 1016 1016 1016 1016 1016 1016 1016 1016 1016 1019 1019 1019 1022 1022 1025 1028 1031 1034 1034 1037 1040 1044 1044 1047 1047 1050 1050 1056 1056 1060 1063 1066 1073 1076 1079 1083 1083 1086 1086 1090 1093 1093 1097 1100 1104 1107 1111 1111 1111 1114 0 0 0 0 0 0 0 0 0 0 0 0 0 0 638 638 638 638 638 638 639 639 639 638 639 639 639 639 639 639 639 639 638 638 638 638 638 639 639 639 639 639 639 639 641 641 641 641 639 641 641 641 641 641 641 641 641 641 642 642 642 642 642 642 643 642 642 642 643 643 643 644 643 644 644 644 644 644 644 644 644 644 644 644 644 644 644 645 645 645 645 645 645 645 645 645 645 647 647 647 647 647 647 647 648 647 648 648 648 648 648 649 649 649 649 649 649 649 650 650 650 650 650 650 650 650 650 650 650 650 650 650 651 650 651 651 653 653 653 653 653 654 654 654 654 654 653 653 653 653 654 654 654 654 654 654 654 654 654 654 654 654 654 655 655 655 655 655 655 658 656 656 656 656 656 658 658 658 658 658 658 656 656 658 658 658 658 658 659 658 658 659 659 659 659 659 659 660 660 661 660 661 660 661 660 660 660 661 661 661 663 661 661 661 661 661 661 660 661 661 663 663 664 664 664 664 665 665 667 667 667 668 0 0 0 0 0 0 0 0 0 0 0 0 0 0 0 0 0 0 0 0 0 0 0 0 0 0 0 0 0 0 0 0 0 0 0 0 0 0 0 0 0 0 0 0 0 0 0 0 0 0 0 3565 3565 3602 3602 3602 3602 3602 3640 3679 3640 3640 3640 3640 3602 3602 3565 3565 3565 3565 3565 3565 3565 3565 3565 3565 3565 3528 3528 3493 3493 3493 3458 3458 3423 3423 3423 3423 3390 3390 3357 3324 3324 3293 3293 3293 3293 3293 3293 3262 3262 3262 3262 3262 3231 3231 3201 3172 3172 3143 3143 3143
    0 0 0 0 0 0 0 0 0 0 0 0 0 0 0 0 0 0 0 0 0 0 0 0 0 0 0 0 0 0 0 0 0 0 0 0 0 0 0 0 0 0 0 0 0 0 0 0 0 0 0 0 0 0 0 0 0 0 0 0 0 0 0 0 0 0 0 0 0 1952 1952 1964 1964 1952 1964 1964 1964 1964 1975 1975 1975 1975 1986 1986 1986 1986 1998 1998 1998 1998 2009 2009 2009 2451 2451 2451 2434 2434 2417 2417 2400 2400 2400 2384 2400 2384 2384 2384 3262 3262 3293 3293 3262 3293 3293 3293 3293 3293 3293 3293 3293 3293 3293 3293 3293 3293 3293 3293 3293 3293 3293 3293 3262 3262 3262 3262 3262 3262 3293 3293 3293 3293 3293 3293 3293 3293 3293 3262 3293 3262 3293 3262 3262 3262 3293 3293 3293 3293 3262 3293 3262 3293 3262 3262 3262 3262 3231 3231 3087 3087 3087 3087 3087 3087 3059 3059 3059 3059 3059 3059 3087 3087 3115 3115 3143 3115 3143 3115 3115 3115 3087 3087 3087 3087 3059 3059 3033 3033 3033 3033 3033 3033 3033 3059 3059 3059 3059 3087 3033 3033 3033 3033 3006 3006 3033 3033 3033 3059 3059 3087 3087 3059 3059 3087 3087 3059 3059 3087 0 0 0 1044 1040 1040 1037 1034 1034 1028 1025 1022 1022 1022 1019 1019 1019 1019 1016 1019 1016 1016 1016 1016 1019 1016 1019 1019 1019 1019 1022 1022 1025 1028 1031 1034 1034 1037 1040 1044 1044 1047 1050 1050 1053 1056 1060 1063 1066 1069 1076 1079 1079 1083 1083 1086 1086 1090 1093 1097 1100 1100 1104 1107 1111 1111 1114 1118 0 0 0 0 0 0 0 0 0 0 0 0 0 637 638 638 638 639 639 639 639 639 639 639 639 639 639 639 639 639 639 639 638 638 638 638 638 639 639 639 639 641 641 641 641 641 641 641 641 641 641 641 641 641 641 642 642 642 642 643 642 643 642 642 643 643 643 643 643 643 644 644 644 644 644 644 644 644 644 644 644 645 644 644 644 645 644 645 645 645 645 645 647 647 647 647 647 647 647 648 647 648 648 647 648 648 648 648 648 649 649 649 649 649 649 649 649 650 650 650 650 650 650 650 650 650 650 650 650 650 651 651 651 650 651 651 653 653 653 654 654 654 654 654 654 654 653 653 653 653 654 654 654 654 654 654 654 654 654 654 654 654 655 655 655 655 655 656 656 658 656 656 656 658 658 658 658 658 658 658 658 656 656 658 658 658 659 659 659 659 659 659 659 659 659 659 660 660 661 661 661 661 661 661 660 660 660 661 661 661 663 663 663 661 661 661 661 661 663 663 663 663 664 664 664 664 664 665 665 667 667 668 0 0 0 0 0 0 0 0 0 0 0 0 0 0 0 0 0 0 0 0 0 0 0 0 0 0 0 0 0 0 0 0 0 0 0 0 0 0 0 0 0 0 0 0 0 0 0 0 0 0 0 0 3565 3565 3602 3602 3602 3602 3640 3640 3640 3640 3640 3640 3640 3602 3602 3565 3565 3565 3565 3565 3565 3565 3565 3565 3565 3528 3528 3493 3493 3493 3458 3458 3423 3423 3423 3423 3423 3390 3357 3324 3324 3293 3293 3293 3293 3293 3293 3262 3262 3262 3262 3262 3231 3201 3201 3172 3172 3143 3143 3143
    0 0 0 0 0 0 0 0 0 0 0 0 0 0 0 0 0 0 0 0 0 0 0 0 0 0 0 0 0 0 0 0 0 0 0 0 0 0 0 0 0 0 0 0 0 0 0 0 0 0 0 0 0 0 0 0 0 0 0 0 0 0 0 0 0 0 0 0 0 1941 1952 1964 1964 1952 1964 1964 1964 1975 1975 1975 1975 1975 1975 1975 1986 1986 1986 1986 1998 1998 1998 1998 1998 0 2434 2434 2434 2417 2417 2417 2400 2384 2384 2384 2384 2384 2384 2384 3293 3293 3262 3262 3262 3293 3293 3293 3293 3293 3293 3293 3293 3293 3293 3293 3293 3293 3293 3293 3293 3293 3293 3293 3293 3262 3262 3262 3262 3262 3293 3293 3293 3293 3293 3293 3293 3293 3293 3293 3293 3262 3293 3262 3262 3262 3293 3293 3293 3293 3262 3293 3262 3293 3262 3262 3262 3262 3262 3262 3293 3201 3172 3172 3172 3172 3172 3172 3201 3201 3115 3115 3115 3115 3143 3143 3143 3143 3143 3115 3115 3087 3087 3087 3059 3059 3059 3059 3033 3033 3033 3033 3033 3059 3059 3087 3115 3115 3115 3115 3115 3087 3087 3033 3033 3033 3033 3033 3033 3059 3087 3087 3087 3059 3059 3087 3087 3059 3059 3059 0 0 0 0 0 1040 1037 1034 1031 1025 1022 1022 1022 1022 1019 1019 1019 1019 1019 1019 1016 1019 1016 1019 1019 1016 1019 1019 1019 1019 1022 1022 1028 1031 1031 1034 1037 1040 1044 1047 1047 1050 1050 1053 1056 1060 1063 1066 1069 1073 1076 1079 1079 1083 1083 1086 1086 1090 1093 1097 1100 1100 1104 1107 1107 1111 1114 1118 0 0 0 0 0 0 0 0 0 0 0 0 0 637 638 638 638 639 639 639 641 641 641 639 639 639 639 641 639 639 639 639 638 638 638 638 638 639 639 639 639 641 641 641 641 641 641 641 641 641 641 641 641 641 642 642 642 642 643 643 643 643 642 642 643 643 643 643 643 643 644 644 644 644 644 644 644 644 645 645 645 645 645 645 645 645 645 645 647 645 647 647 647 647 648 648 648 648 648 648 648 648 648 648 648 648 649 648 649 649 649 649 649 649 649 649 649 650 650 650 650 650 650 650 650 651 650 651 651 651 651 651 651 651 651 651 653 653 653 654 654 654 654 654 654 654 653 654 654 654 654 654 654 654 654 654 654 654 654 654 654 655 655 655 655 656 656 656 656 658 658 658 658 658 658 658 658 658 658 658 658 658 658 658 659 659 659 659 659 659 659 659 659 659 659 660 660 661 661 661 661 661 661 663 661 661 661 661 661 661 661 661 663 663 663 663 661 661 663 663 663 664 664 664 664 664 665 665 665 665 667 668 0 0 0 0 0 0 0 0 0 0 0 0 0 0 0 0 0 0 0 0 0 0 0 0 0 0 0 0 0 0 0 0 0 0 0 0 0 0 0 0 0 0 0 0 0 0 0 0 0 0 3565 3565 3565 3602 3602 3602 3602 3602 3640 3640 3679 3640 3640 3640 3640 3640 3602 3602 3602 3602 3565 3565 3565 3565 3565 3565 3565 3528 3528 3528 3493 3493 3458 3423 3423 3423 3423 3423 3390 3390 3357 3324 3324 3293 3293 3293 3262 3262 3262 3262 3262 3262 3262 3262 3262 3231 3201 3201 3172 3172 3143 3143
    0 0 0 0 0 0 0 0 0 0 0 0 0 0 0 0 0 0 0 0 0 0 0 0 0 0 0 0 0 0 0 0 0 0 0 0 0 0 0 0 0 0 0 0 0 0 0 0 0 0 0 0 0 0 0 0 0 0 0 0 0 0 0 0 0 0 0 0 0 1941 1952 1952 1964 1952 1952 1964 1964 1975 1975 1975 1975 1975 1986 1975 1986 1986 1986 1986 1986 1998 1998 1998 1998 2451 2451 2434 2434 2417 2400 2417 2400 2384 2384 2384 2384 2384 2384 2384 3293 3293 3262 3293 3293 3293 3293 3293 3293 3293 3293 3293 3293 3293 3293 3293 3293 3293 3293 3293 3293 3293 3293 3293 3262 3262 3262 3262 3262 3262 3262 3293 3293 3293 3293 3293 3293 3293 3293 3293 3293 3262 3293 3262 3262 3262 3293 3293 3293 3293 3262 3262 3262 3293 3262 3293 3293 3293 3293 3293 3262 3262 3231 3231 3231 3231 3231 3201 3201 3201 3172 3172 3172 3172 3172 3172 3201 3172 3201 3172 3143 3115 3115 3087 3087 3059 3059 3059 3033 3033 3033 3033 3059 3059 3087 3115 3143 3143 3143 3172 3172 3143 3143 3143 3033 3033 3033 3033 3033 3033 3087 3087 3087 3087 3087 3115 3115 3087 3087 0 0 0 0 0 0 0 1037 1034 1031 1028 1025 1022 1022 1022 1022 1019 1019 1019 1019 1019 1019 1019 1019 1019 1019 1019 1019 1019 1022 1022 1022 1025 1031 1034 1034 1037 1040 1044 1044 1047 1050 1050 1053 1056 1056 1063 1066 1069 1073 1076 1076 1079 1083 1083 1083 1086 1086 1090 1093 1097 1100 1100 1100 1104 1104 1107 1114 0 0 0 0 0 0 0 0 0 0 0 0 0 0 0 638 638 639 639 639 639 641 641 641 639 639 639 641 641 639 639 639 639 639 639 638 638 639 639 639 639 641 641 641 641 641 641 641 642 641 642 642 641 642 642 642 642 643 643 643 643 643 643 643 643 643 643 644 643 644 644 644 644 644 644 644 645 645 645 645 645 645 645 645 645 645 647 645 647 647 647 647 648 648 648 649 649 648 648 648 649 648 648 648 648 649 648 649 649 649 649 649 649 649 649 649 649 650 650 650 650 650 650 650 650 651 651 651 651 653 653 653 653 653 653 653 653 653 654 654 654 654 655 655 655 655 655 654 654 654 654 654 654 655 655 655 654 655 655 655 654 654 655 655 656 656 656 656 658 658 658 658 658 658 658 658 658 656 658 658 658 658 658 658 659 659 659 659 659 659 659 659 659 659 659 659 660 660 661 661 663 661 663 663 663 663 661 661 661 661 661 661 663 663 663 663 663 663 663 663 663 663 664 664 664 664 665 665 665 667 665 667 668 0 0 0 0 0 0 0 0 0 0 0 0 0 0 0 0 0 0 0 0 0 0 0 0 0 0 0 0 0 0 0 0 0 0 0 0 0 0 0 0 0 0 0 0 0 0 0 0 3640 3602 3565 3565 3602 3602 3640 3640 3640 3640 3640 3679 3679 3679 3679 3679 3679 3640 3640 3602 3602 3602 3565 3565 3565 3565 3565 3565 3565 3528 3528 3528 3528 3493 3458 3458 3423 3423 3423 3423 3390 3390 3357 3357 3324 3324 3293 3293 3293 3293 3262 3262 3262 3262 3262 3262 3262 3231 3231 3201 3201 3172 3143 3143
    0 0 0 0 0 0 0 0 0 0 0 0 0 0 0 0 0 0 0 0 0 0 0 0 0 0 0 0 0 0 0 0 0 0 0 0 0 0 0 0 0 0 0 0 0 0 0 0 0 0 0 0 0 0 0 0 0 0 0 0 0 0 0 0 0 0 0 0 0 1941 1941 1952 1964 1952 1964 1964 1975 1975 1975 1986 1986 1986 1986 1986 1975 1986 1986 1986 1986 1986 1986 1998 1998 2451 2451 2451 2434 2400 2400 2400 2384 2384 2384 2384 2384 2384 2384 2384 3293 3293 3262 3293 3293 3293 3293 3293 3293 3293 3293 3293 3293 3293 3293 3262 3293 3293 3293 3293 3293 3293 3293 3293 3262 3262 3262 3262 3262 3262 3262 3262 3262 3293 3293 3293 3293 3293 3293 3293 3293 3293 3293 3293 3293 3293 3293 3293 3293 3293 3293 3293 3293 3293 3293 3293 3293 3293 3293 3293 3293 3262 3262 3262 3231 3262 3262 3231 3172 3231 3201 3201 3172 3172 3172 3201 3231 3201 3201 3201 3172 3143 3115 3087 3087 3059 3059 3059 3033 3033 3033 3059 3059 3087 3087 3115 3143 3143 3201 3231 3231 3262 3262 0 0 0 3262 3390 3390 3115 3115 3115 3115 3115 3115 3115 0 0 3059 0 0 0 0 0 0 0 1034 1031 1031 1025 1025 1025 1022 1022 1022 1019 1019 1019 1019 1019 1019 1019 1019 1019 1019 1019 1019 1022 1022 1022 1025 1028 1034 1034 1037 1040 1044 1047 1047 1050 1053 1053 1056 1056 1060 1066 1066 1069 1073 1076 1079 1079 1083 1083 1086 1086 1086 1093 1093 1097 1100 1100 1100 1104 1104 1107 1111 1118 0 0 0 0 0 0 0 0 0 0 0 0 0 0 0 639 641 641 641 641 641 641 641 639 639 639 641 641 641 639 639 639 639 639 639 639 639 639 639 639 641 641 641 641 641 642 641 642 642 642 642 642 642 642 643 643 643 643 643 644 644 644 644 644 644 644 644 644 644 644 644 644 644 644 644 645 645 645 645 645 645 645 645 647 647 647 647 647 648 647 648 648 648 649 649 649 649 649 648 649 648 648 649 649 649 649 649 649 649 649 649 649 649 649 649 649 650 650 650 650 650 650 650 651 651 651 651 653 653 653 653 653 653 653 653 653 653 654 654 654 654 655 655 655 655 655 654 654 654 654 654 655 655 655 655 654 655 655 655 654 654 655 655 656 656 656 658 658 658 658 658 658 658 658 658 658 658 658 658 658 659 659 659 659 659 659 659 659 659 659 659 659 660 660 660 660 661 661 661 663 663 663 663 663 663 663 663 663 663 663 664 663 663 663 663 663 663 663 663 663 664 664 664 664 665 665 665 665 665 667 667 668 0 0 0 0 0 0 0 0 0 0 0 0 0 0 0 0 0 0 0 0 0 0 0 0 0 0 0 0 0 0 0 0 0 0 0 0 0 0 0 0 0 0 0 0 0 0 0 0 3640 3565 3565 3602 3602 3640 3640 3640 3640 3640 3679 3679 3679 3679 3679 3679 3679 3679 3640 3640 3602 3602 3602 3565 3565 3565 3565 3565 3565 3528 3528 3528 3493 3458 3458 3423 3423 3423 3423 3423 3390 3390 3357 3357 3324 3324 3293 3293 3293 3293 3293 3262 3262 3262 3262 3262 3262 3262 3231 3231 3231 3172 3143 3143
    0 0 0 0 0 0 0 0 0 0 0 0 0 0 0 0 0 0 0 0 0 0 0 0 0 0 0 0 0 0 0 0 0 0 0 0 0 0 0 0 0 0 0 0 0 0 0 0 0 0 0 0 0 0 0 0 0 0 0 0 0 0 0 0 0 0 0 0 0 1952 1952 1952 1952 1952 1952 1964 1975 1975 1986 1986 1986 1986 1986 1986 1975 1975 1986 1986 1986 1986 1986 1986 1986 2451 2451 2451 2434 2384 2384 2384 2384 2384 2384 2384 2384 2384 2384 3293 3293 3293 3293 3293 3293 3293 3293 3293 3293 3293 3293 3293 3293 3293 3293 3262 3293 3262 3262 3262 3262 3293 3262 3262 3262 3262 3262 3262 3262 3262 3262 3262 3262 3293 3293 3293 3293 3293 3293 3293 3293 3293 3293 3293 3293 3293 3293 3293 3293 3293 3293 3262 3262 3293 3293 3293 3293 3293 3293 3293 3293 3293 3262 3262 3262 3262 3262 3231 3172 3231 3262 3231 3231 3231 3231 3262 3262 3262 3231 3231 3201 3172 3143 3143 3115 3115 3059 3059 3059 3059 3059 3059 3087 3115 3115 3143 3172 3201 3201 3231 3231 3262 3262 0 3262 3262 3262 3262 3390 3390 3231 3231 3390 0 0 0 0 0 3033 0 0 0 0 0 0 0 0 1022 1022 1022 1022 1022 1022 1022 1022 1022 1019 1022 1019 1019 1019 1019 1019 1019 1019 1022 1022 1022 1025 1025 1025 1031 1037 1037 1040 1044 1047 1050 1050 1053 1056 1056 1060 1060 1063 1066 1069 1073 1076 1079 1079 1083 1083 1083 1086 1086 1090 1093 1093 1097 1097 1100 1100 1104 1104 1107 1114 1118 1129 0 0 0 0 0 0 0 0 0 0 0 0 0 638 639 641 641 641 641 641 641 641 639 639 641 641 641 641 639 639 639 639 639 639 639 639 639 641 641 641 641 641 642 642 642 641 642 642 642 642 642 642 643 643 643 643 643 644 644 644 644 644 644 644 644 644 644 644 644 644 644 645 645 645 645 645 645 645 645 645 645 645 647 647 647 647 647 648 648 648 648 648 649 649 649 649 649 649 649 649 649 649 649 649 649 649 649 649 649 650 649 649 649 649 650 650 650 650 650 650 651 651 651 651 651 651 653 653 653 654 653 653 653 654 654 654 654 654 654 655 655 655 655 655 655 654 654 654 654 654 655 655 655 655 655 656 656 655 655 655 656 656 658 656 658 658 658 658 658 658 658 658 659 658 658 658 658 659 659 659 659 659 659 660 660 659 659 660 660 660 660 660 660 660 661 661 661 661 663 663 663 663 663 663 663 663 663 663 663 663 663 663 663 663 663 663 663 663 664 664 664 664 664 665 665 665 665 667 665 667 668 0 0 0 0 0 0 0 0 0 0 0 0 0 0 0 0 0 0 0 0 0 0 0 0 0 0 0 0 0 0 0 0 0 0 0 0 0 0 0 0 0 0 0 0 0 0 0 3565 3565 3565 3565 3602 3602 3640 3640 3640 3640 3640 3679 3679 3679 3679 3679 3679 3679 3679 3640 3640 3602 3602 3565 3565 3565 3565 3565 3565 3528 3528 3528 3528 3493 3458 3423 3423 3423 3390 3390 3390 3390 3357 3324 3324 3324 3293 3293 3293 3293 3293 3293 3262 3262 3262 3262 3262 3231 3231 3231 3231 3201 3201 3172 3143
    0 0 0 0 0 0 0 0 0 0 0 0 0 0 0 0 0 0 0 0 0 0 0 0 0 0 0 0 0 0 0 0 0 0 0 0 0 0 0 0 0 0 0 0 0 0 0 0 0 0 0 0 0 0 0 0 0 0 0 0 0 0 0 0 0 0 0 0 0 1952 1952 1964 1964 1952 1964 1964 1975 1986 1986 1986 1986 1986 1986 1986 1986 1986 1986 1986 1986 1986 1986 1998 1998 2505 2451 2434 2417 2400 2384 2384 2384 2384 2384 2384 2384 2384 2384 0 3293 3293 3293 3293 3293 3293 3293 3293 3293 3293 3293 3293 3293 3262 3262 3262 3262 3262 3262 3262 3262 3262 3262 3262 3262 3262 3262 3262 3262 3262 3262 3262 3262 3293 3293 3293 3293 3293 3293 3262 3262 3262 3293 3293 3293 3293 3293 3293 3293 3262 3262 3262 3262 3293 3293 3293 3293 3293 3293 3293 3293 3293 3262 3262 3262 3262 3262 3231 3231 3262 3262 3262 3262 3262 3293 3293 3293 3293 3262 3262 3262 3231 3201 3172 3143 3143 0 3033 3033 3033 3033 3059 3087 3115 3143 3201 3231 3231 3231 3231 3231 3262 3262 3262 3262 3262 3262 3262 3390 3390 3357 3231 3390 0 0 0 0 0 0 0 0 0 0 0 0 0 1010 1010 1013 1019 1019 1022 1022 1022 1022 1022 1022 1022 1022 1022 1022 1022 1022 1022 1022 1022 1025 1025 1031 1028 1034 1037 1044 1044 1044 1047 1050 1050 1053 1056 1056 1060 1060 1063 1066 1069 1069 1076 1079 1079 1083 1083 1083 1083 1086 1086 1086 1090 1093 1097 1097 1097 1100 1100 1104 1107 1114 1118 1125 1133 0 0 0 0 0 0 0 0 0 0 0 0 0 639 641 641 641 641 641 641 642 641 641 641 641 641 641 641 641 639 639 639 639 639 639 639 641 641 641 642 642 642 642 642 642 642 642 642 642 642 643 643 643 643 644 644 644 644 644 644 644 644 644 644 644 644 644 645 645 645 645 645 645 645 645 645 645 645 645 647 647 647 648 648 647 647 648 648 648 649 649 649 649 649 649 649 649 649 649 649 649 649 650 649 650 650 650 650 650 650 649 649 649 650 650 650 650 650 651 651 651 651 651 651 653 653 653 653 654 653 653 653 654 654 654 654 655 655 655 655 655 655 655 655 654 654 654 654 654 655 655 656 656 655 655 656 656 655 656 656 656 658 658 658 658 658 658 659 659 658 658 658 659 659 659 659 659 659 659 660 660 660 660 660 660 660 660 660 660 660 661 661 661 661 661 661 661 663 663 663 663 663 663 663 663 663 663 664 663 663 663 663 663 663 663 663 663 663 663 664 664 665 665 665 665 667 667 667 667 668 0 0 0 0 0 0 0 0 0 0 0 0 0 0 0 0 0 0 0 0 0 0 0 0 0 0 0 0 0 0 0 0 0 0 0 0 0 0 0 0 0 0 0 0 0 0 3565 3565 3565 3565 3602 3602 3602 3640 3640 3640 3640 3679 3679 3679 3679 3679 3679 3679 3640 3640 3602 3602 3602 3602 3565 3528 3565 3565 3565 3565 3528 3528 3528 3528 3493 3458 3423 3423 3423 3390 3390 3390 3357 3357 3324 3324 3293 3293 3293 3293 3293 3293 3293 3262 3293 3262 3262 3262 3231 3231 3231 3231 3201 3172 3172 3143
    0 0 0 0 0 0 0 0 0 0 0 0 0 0 0 0 0 0 0 0 0 0 0 0 0 0 0 0 0 0 0 0 0 0 0 0 0 0 0 0 0 0 0 0 0 0 0 0 0 0 0 0 0 0 0 0 0 0 0 0 0 0 0 0 0 0 0 0 0 1952 1952 1964 1964 1952 1952 1964 1975 1975 1986 1986 1986 1986 1986 1986 1986 1986 1986 1986 1986 1986 1986 1998 1986 2505 2451 2434 2417 2400 2384 2400 2384 2384 2384 2384 2384 2384 2384 3262 3293 3293 3262 3262 3293 3262 3293 3293 3262 3262 3262 3262 3262 3262 3262 3262 3262 3262 3262 3262 3262 3262 3262 3262 3262 3262 3262 3262 3262 3262 3262 3262 3262 3293 3293 3293 3293 3293 3293 3262 3262 3262 3262 3293 3293 3293 3293 3293 3293 3293 3262 3262 3262 3293 3293 3293 3293 3293 3293 3293 3293 3293 3262 3262 3262 3262 3262 3262 3262 3262 3293 3262 3262 3293 3293 3293 3293 3293 3262 3262 3262 3262 3231 3201 3201 3201 0 0 3231 3231 3231 3143 3143 3143 3172 3201 3231 3231 3231 3262 3262 3262 3262 3262 3262 3262 3262 3262 3262 3262 3262 3231 3231 0 0 0 0 0 0 0 0 0 0 0 0 0 1107 1107 1104 1104 1022 1022 1022 1022 1022 1022 1022 1022 1022 1022 1022 1025 1028 1025 1025 1028 1031 1031 1037 1037 1040 1044 1047 1047 1047 1050 1053 1053 1056 1056 1060 1060 1063 1066 1069 1069 1073 1076 1079 1079 1079 1083 1083 1083 1086 1086 1086 1090 1093 1093 1097 1097 1100 1100 1100 1104 1111 1114 1122 0 0 0 0 0 0 0 0 0 0 0 0 0 0 641 641 641 641 641 642 642 642 641 641 642 642 642 641 641 641 639 639 639 639 639 639 641 641 641 641 642 642 642 642 642 642 642 642 643 643 643 643 643 644 644 644 644 644 644 645 645 645 644 644 645 645 645 645 645 645 645 645 645 645 645 645 645 645 647 645 647 647 647 648 648 648 648 649 648 649 649 649 649 649 650 650 650 650 650 649 649 650 650 650 650 650 650 650 650 650 650 650 650 650 650 650 650 650 651 651 651 651 651 651 651 653 653 654 654 654 653 653 653 653 653 654 654 654 655 655 655 655 655 655 655 654 654 654 654 655 655 656 656 656 655 656 656 656 656 656 656 656 658 658 658 658 659 659 659 659 659 659 659 659 659 659 659 660 660 660 660 660 660 660 660 660 660 660 661 661 661 661 661 661 663 663 663 663 663 663 664 664 664 664 664 664 664 664 664 664 664 664 664 663 664 663 663 664 664 664 665 665 665 665 665 665 667 667 667 667 0 0 0 0 0 0 0 0 0 0 0 0 0 0 0 0 0 0 0 0 0 0 0 0 0 0 0 0 0 0 0 0 0 0 0 0 0 0 0 0 0 0 0 0 0 0 0 3528 3528 3565 3565 3565 3565 3602 3602 3602 3640 3640 3640 3679 3679 3679 3640 3679 3679 3640 3640 3640 3640 3640 3602 3565 3565 3565 3565 3565 3565 3528 3528 3528 3528 3493 3458 3423 3390 3390 3390 3390 3390 3357 3357 3324 3324 3293 3324 3324 3293 3293 3293 3293 3293 3293 3262 3262 3231 3231 3231 3201 3201 3201 3172 3172 3143
    0 0 0 0 0 0 0 0 0 0 0 0 0 0 0 0 0 0 0 0 0 0 0 0 0 0 0 0 0 0 0 0 0 0 0 0 0 0 0 0 0 0 0 0 0 0 0 0 0 0 0 0 0 0 0 0 0 0 0 0 0 0 0 0 0 0 0 0 1952 1952 1952 1952 1952 1952 1952 1964 1964 1975 1975 1986 1986 1986 1986 1986 1986 1986 1986 1986 1986 1986 1986 1998 2523 2505 2451 2434 2417 2400 2400 2384 2384 2384 2384 2384 2384 2384 2384 3262 3262 3293 3262 3262 3262 3262 3262 3262 3262 3262 3262 3293 3293 3293 3293 3262 3262 3262 3262 3262 3262 3262 3262 3262 3262 3262 3262 3262 3262 3262 3262 3262 3262 3293 3293 3293 3293 3293 3293 3262 3262 3262 3262 3262 3293 3293 3293 3293 3293 3293 3293 3262 3293 3293 3293 3293 3293 3293 3293 3293 3293 3293 3293 3262 3262 3262 3262 3262 3262 3262 3293 3262 3293 3293 3293 3293 3293 3293 3293 3293 3262 3262 3231 3231 3231 3231 3262 3262 3231 3231 3231 3231 3172 3172 3201 3231 3262 3262 3231 3262 3262 3262 3262 3262 3262 3262 3262 3262 3293 3262 3262 3262 3262 0 0 0 0 0 0 0 0 0 0 0 0 1107 1107 1107 1107 1107 1104 1100 1097 1022 1022 1022 1022 1022 1022 1025 1025 1028 1034 1031 1031 1034 1037 1040 1044 1044 1047 1047 1050 1053 1050 1053 1056 1056 1060 1060 1063 1063 1066 1069 1073 1073 1073 1079 1079 1083 1083 1083 1083 1083 1086 1086 1086 1090 1090 1093 1097 1097 1097 1100 1100 1104 1107 1111 1114 1122 0 0 0 0 0 0 0 0 0 0 0 0 0 641 641 641 641 641 642 642 642 641 641 642 642 642 641 641 641 641 641 641 641 639 639 641 641 641 641 642 642 642 642 642 642 643 643 643 643 643 643 644 644 644 644 644 644 644 645 645 645 645 645 645 645 645 645 645 647 647 647 647 647 647 645 645 647 647 647 647 647 648 648 649 649 649 649 649 649 649 650 650 650 650 650 650 650 650 650 650 650 650 650 650 650 650 650 650 650 650 650 650 650 651 651 651 651 651 651 651 653 654 653 653 653 654 654 654 654 653 653 653 654 655 655 655 655 655 655 655 655 655 655 655 654 654 654 655 655 656 658 658 658 656 658 658 656 656 658 658 658 659 658 659 659 659 659 660 660 659 659 660 660 660 660 660 660 661 661 660 661 661 661 661 661 661 661 661 663 663 663 663 663 663 663 663 663 663 664 664 664 664 664 664 665 665 664 664 664 664 664 664 664 664 664 664 664 665 664 665 665 665 665 665 665 665 667 665 665 0 0 0 0 0 0 0 0 0 0 0 0 0 0 0 0 0 0 0 0 0 0 0 0 0 0 0 0 0 0 0 0 0 0 0 0 0 0 0 0 0 0 0 0 0 0 0 3528 3528 3528 3528 3528 3565 3565 3565 3565 3602 3640 3640 3679 3640 3640 3640 3679 3640 3640 3640 3602 3602 3602 3602 3602 3565 3565 3565 3565 3565 3528 3528 3528 3528 3493 3458 3423 3390 3390 3390 3390 3357 3357 3357 3324 3357 3324 3324 3324 3324 3293 3293 3293 3262 3293 3262 3262 3231 3231 3201 3201 3201 3172 3172 3143 3143
    0 0 0 0 0 0 0 0 0 0 0 0 0 0 0 0 0 0 0 0 0 0 0 0 0 0 0 0 0 0 0 0 0 0 0 0 0 0 0 0 0 0 0 0 0 0 0 0 0 0 0 0 0 0 0 0 0 0 0 0 0 0 0 0 0 0 0 0 0 1952 1952 1952 1952 1952 1952 1952 1964 1964 1975 1986 1986 1986 1986 1986 1986 1986 1986 1986 1986 1986 1986 1998 2505 2505 2451 2451 2434 2417 2400 2400 2384 2384 2384 2384 2384 2384 2384 3262 3262 3262 3262 3262 3262 3262 3262 3262 3262 3262 3262 3262 3262 3262 3262 3262 3262 3262 3262 3262 3262 3262 3262 3262 3262 3262 3262 3262 3262 3262 3262 3262 3262 3262 3293 3293 3262 3262 3262 3262 3262 3262 3262 3262 3262 3262 3262 3293 3293 3262 3262 3262 3262 3262 3262 3293 3293 3293 3293 3293 3293 3293 3293 3293 3293 3262 3262 3262 3262 3262 3293 3293 3293 3293 3293 3293 3293 3293 3293 3293 3293 3262 3262 3262 3262 3262 3262 3262 3231 3231 3231 3231 3231 3231 3231 3231 3262 3262 3262 3262 3262 3262 3262 3262 3262 3262 3262 3262 3262 3262 3262 3231 3231 0 0 0 0 0 0 0 0 0 0 0 0 1107 1107 1107 1104 1100 1100 1097 1097 1090 1019 1019 1022 1022 1022 1025 1025 1037 1040 1040 1037 1040 1044 1044 1047 1047 1050 1050 1053 1053 1053 1056 1060 1060 1063 1063 1066 1069 1069 1069 1073 1073 1076 1079 1079 1083 1083 1083 1083 1083 1083 1086 1086 1086 1090 1093 1093 1097 1097 1100 1100 1104 1104 1111 1114 1118 0 0 0 0 0 0 0 1140 1140 1140 1140 0 641 641 641 641 642 642 642 642 643 642 642 642 642 642 642 642 642 642 641 641 641 641 641 641 642 642 642 642 642 642 643 643 642 643 643 643 644 644 644 644 644 644 644 645 645 645 645 645 645 645 645 647 647 647 647 647 647 647 647 647 648 648 647 647 647 647 648 648 648 648 649 649 649 649 649 649 650 650 650 650 650 650 650 650 650 650 650 650 650 650 650 651 651 651 651 651 651 651 651 651 650 651 651 653 653 653 653 654 654 653 653 654 654 654 655 655 655 655 655 654 655 655 655 655 655 655 655 655 655 655 655 655 654 655 655 655 656 658 658 658 658 658 658 658 658 658 658 659 659 659 660 660 660 660 660 661 661 660 660 660 661 661 661 661 661 661 661 661 661 661 661 661 661 661 663 663 663 663 663 663 663 663 664 664 664 664 664 665 665 665 665 665 665 665 665 665 665 665 665 665 665 665 665 665 665 667 665 667 667 667 667 667 667 667 667 665 0 0 0 0 0 0 0 0 0 0 0 0 0 0 0 0 0 0 0 0 0 0 0 0 0 0 0 0 0 0 0 0 0 0 0 0 0 0 0 0 0 0 0 0 0 0 0 0 3528 3528 3528 3528 3528 3565 3565 3565 3602 3602 3640 3640 3640 3640 3640 3640 3640 3640 3640 3640 3602 3602 3602 3602 3565 3565 3565 3565 3565 3565 3528 3528 3528 3528 3493 3458 3423 3390 3390 3390 3357 3357 3357 3357 3357 3357 3324 3357 3357 3324 3324 3324 3293 3293 3293 3262 3231 3231 3231 3201 3201 3201 3201 3172 3172 3143
    0 0 0 0 0 0 0 0 0 0 0 0 0 0 0 0 0 0 0 0 0 0 0 0 0 0 0 0 0 0 0 0 0 0 0 0 0 0 0 0 0 0 0 0 0 0 0 0 0 0 0 0 0 0 0 0 0 0 0 0 0 0 0 0 0 0 0 0 1952 1952 1952 1952 1952 1941 1941 1952 1952 1964 1975 1975 1986 1986 1986 1998 1998 1998 1998 1986 1998 1986 1998 1998 1986 2451 2451 2434 2417 2417 2400 2400 2384 2384 2384 2384 2384 2384 3033 3262 3262 3262 3262 3262 3262 3262 3262 3262 3262 3262 3262 3262 3262 3262 3262 3262 3262 3262 3262 3262 3262 3262 3262 3262 3231 3262 3262 3262 3262 3262 3262 3262 3262 3262 3262 3262 3262 3262 3262 3262 3262 3262 3262 3262 3262 3262 3262 3293 3293 3293 3293 3293 3262 3293 3262 3293 3293 3293 3293 3293 3293 3293 3293 3293 3262 3262 3262 3262 3262 3262 3293 3293 3293 3293 3293 3293 3293 3293 3293 3293 3293 3262 3262 3262 3262 3293 3293 3293 3262 3262 3293 3262 3262 3231 3262 3262 3262 3262 3262 3262 3262 3262 3262 3262 3262 3262 3262 3262 3262 3262 3262 3262 3262 3262 0 0 0 0 0 0 0 0 3262 3293 1107 1107 1104 1104 1100 1100 1097 1093 1093 1086 1083 1083 1022 1022 1025 1040 1040 1044 1044 1044 1044 1044 1047 1047 1050 1050 1053 1053 1056 1056 1056 1060 1060 1063 1066 1066 1066 1069 1069 1073 1073 1076 1076 1079 1079 1083 1083 1083 1083 1083 1083 1086 1086 1086 1090 1090 1093 1093 1097 1097 1100 1104 1104 1107 1111 1114 1122 1125 1125 1129 1129 1133 1133 1133 1136 1136 1136 1140 641 641 641 642 642 642 642 642 643 642 642 642 643 643 642 643 643 643 642 642 642 641 642 642 642 642 642 643 643 643 643 643 643 644 644 644 644 644 644 645 645 645 645 645 645 647 647 647 647 647 647 648 648 647 648 648 648 648 648 648 648 648 647 647 647 648 648 648 648 648 649 649 649 649 649 649 650 650 650 650 650 650 651 651 650 650 650 650 650 650 651 651 651 651 651 651 651 653 653 651 651 653 653 653 653 654 654 654 654 654 654 654 654 654 655 655 655 655 655 655 655 654 655 655 655 655 655 655 655 655 655 655 655 655 655 656 656 658 658 658 658 658 658 658 658 658 659 659 660 660 661 661 661 661 661 663 663 661 661 661 661 661 661 661 661 663 661 663 663 663 663 663 663 663 663 663 663 663 663 663 663 664 664 664 664 664 665 665 665 665 667 665 667 667 667 667 667 667 667 667 667 667 667 667 667 668 667 668 668 668 667 667 667 667 667 667 0 0 0 0 0 0 0 0 0 0 0 0 0 0 0 0 0 0 0 0 0 0 0 0 0 0 0 0 0 0 0 0 0 0 0 0 0 0 0 0 0 0 0 0 0 0 0 0 3493 3528 3528 3528 3528 3565 3565 3565 3602 3602 3602 3640 3640 3640 3640 3640 3640 3640 3640 3640 3602 3602 3602 3602 3602 3565 3565 3565 3565 3565 3528 3528 3528 3493 3493 3458 3423 3390 3390 3390 3357 3357 3357 3357 3357 3357 3324 3324 3324 3324 3324 3293 3293 3262 3262 3231 3231 3201 3201 3201 3172 3172 3172 3172 3143 3143
    0 0 0 0 0 0 0 0 0 0 0 0 0 0 0 0 0 0 0 0 0 0 0 0 0 0 0 0 0 0 0 0 0 0 0 0 0 0 0 0 0 0 0 0 0 0 0 0 0 0 0 0 0 0 0 0 0 0 0 0 0 0 0 0 0 0 0 0 1952 1952 1952 1952 1952 1941 1941 1952 1952 1964 1975 1975 1986 1986 1986 1998 1998 1998 1998 1998 1998 1998 1998 1998 1998 2434 2434 2434 2417 2417 2400 2384 2384 2384 2384 2384 2980 3033 3033 3231 3231 3262 3262 3262 3262 3262 3262 3262 3262 3231 3262 3262 3262 3262 3262 3262 3262 3262 3262 3262 3262 3262 3262 3262 3231 3231 3262 3262 3262 3262 3262 3262 3262 3262 3262 3262 3262 3262 3262 3262 3262 3262 3262 3262 3262 3262 3262 3293 3293 3262 3262 3262 3262 3293 3293 3293 3293 3293 3293 3293 3293 3293 3293 3293 3262 3262 3262 3262 3262 3262 3293 3293 3293 3293 3293 3293 3293 3293 3262 3293 3293 3262 3262 3262 3293 3293 3293 3293 3262 3262 3293 3293 3262 3262 3262 3262 3262 3262 3262 3262 3262 3262 3262 3262 3262 3262 3262 3262 3262 3262 3262 3262 3262 3262 3262 0 0 0 0 0 0 3324 3293 3324 1107 1107 1104 1104 1100 1100 1097 1097 1093 1086 1083 1083 1076 1073 1069 1060 1047 1047 1047 1047 1047 1047 1050 1050 1053 1053 1056 1056 1060 1060 1060 1063 1063 1066 1069 1069 1069 1069 1073 1073 1076 1076 1079 1079 1079 1083 1083 1083 1083 1083 1083 1086 1086 1086 1086 1090 1093 1093 1097 1097 1100 1104 1104 1111 1111 1114 1118 1122 1125 1129 1129 1129 1133 1133 1136 1136 1133 1136 1136 641 641 642 642 643 643 643 643 642 643 643 643 643 643 643 643 643 643 643 643 642 643 642 643 643 643 644 644 644 644 644 644 644 645 645 645 645 645 645 645 645 645 645 647 647 647 648 648 648 648 648 648 648 648 649 649 649 649 649 649 649 648 648 648 648 648 649 649 649 649 649 650 650 650 650 650 650 650 651 651 651 651 651 651 651 651 650 650 651 651 651 653 651 653 653 653 653 653 653 653 653 654 654 654 654 654 654 654 654 654 654 655 655 655 656 656 656 655 655 654 654 655 655 655 655 655 655 656 655 656 655 655 655 656 656 658 658 658 659 658 658 659 659 659 659 659 660 660 660 661 661 661 663 663 663 663 663 663 663 663 663 663 661 663 663 663 663 663 663 663 663 663 663 663 663 664 664 664 664 664 664 664 664 665 665 667 667 667 667 667 667 668 667 667 667 667 667 667 667 667 668 668 668 668 668 668 668 668 668 667 667 667 667 668 667 0 0 0 0 0 0 0 0 0 0 0 0 0 0 0 0 0 0 0 0 0 0 0 0 0 0 0 0 0 0 0 0 0 0 0 0 0 0 0 0 0 0 0 0 0 0 0 0 3493 3493 3528 3528 3528 3528 3565 3565 3565 3602 3602 3640 3640 3640 3640 3640 3640 3640 3640 3602 3602 3602 3602 3602 3565 3565 3565 3565 3565 3528 3528 3528 3493 3493 3493 3458 3423 3423 3423 3390 3390 3357 3357 3357 3357 3357 3324 3324 3324 3324 3293 3293 3293 3262 3262 3231 3231 3201 3201 3172 3172 3172 3172 3143 3143 3143
    0 0 0 0 0 0 0 0 0 0 0 0 0 0 0 0 0 0 0 0 0 0 0 0 0 0 0 0 0 0 0 0 0 0 0 0 0 0 0 0 0 0 0 0 0 0 0 0 0 0 0 0 0 0 0 0 0 0 0 0 0 0 0 0 0 0 0 0 1941 1941 1952 1952 1952 1941 1941 1952 1952 1952 1975 1975 1986 1986 1986 1998 1998 1998 1998 1998 1998 1998 1998 2009 1998 1998 2434 2417 2400 2417 2400 2400 2384 2384 2384 2384 3006 3059 3201 3201 3231 3262 3231 3231 3262 3262 3262 3231 3262 3231 3262 3262 3262 3262 3262 3262 3262 3262 3262 3262 3262 3262 3262 3262 3231 3231 3262 3262 3262 3262 3262 3262 3262 3262 3262 3262 3262 3262 3262 3262 3262 3262 3262 3262 3262 3262 3262 3293 3293 3262 3262 3262 3262 3262 3262 3262 3293 3293 3293 3293 3293 3293 3293 3293 3293 3262 3262 3262 3262 3293 3293 3293 3262 3293 3293 3293 3293 3293 3262 3293 3293 3262 3262 3262 3293 3293 3293 3293 3262 3262 3262 3262 3262 3262 3262 3262 3262 3293 3262 3262 3262 3262 3262 3262 3262 3262 3262 3262 3262 3262 3262 3262 3262 3262 3262 3262 3231 3262 3262 3293 3293 3293 3293 3293 3324 1104 1100 1100 1100 1100 1097 1097 1093 1086 1079 1079 1073 1069 1069 1066 1066 1060 1050 1050 1050 1050 1056 1056 1056 1056 1060 1060 1060 1060 1063 1066 1066 1066 1069 1069 1069 1069 1073 1073 1076 1076 1079 1079 1083 1083 1083 1083 1083 1083 1083 1083 1086 1086 1086 1090 1090 1090 1093 1097 1100 1104 1104 1107 1111 1114 1114 1118 1122 1125 1125 1129 1129 1129 1129 1129 1129 1133 641 641 642 642 643 643 643 644 644 643 643 643 644 643 643 644 644 644 644 644 644 644 644 644 644 644 644 644 644 644 644 645 645 645 645 647 647 647 647 647 647 647 647 647 647 647 648 648 648 648 648 648 648 649 649 649 649 649 649 649 649 649 649 648 648 649 649 649 649 650 650 650 650 650 650 650 650 651 651 651 651 653 653 651 651 651 651 651 651 651 651 653 653 653 653 653 653 653 654 654 654 654 654 655 655 655 654 654 654 655 655 655 655 655 656 656 656 656 655 658 655 655 656 656 656 656 656 656 658 658 658 656 656 656 656 658 658 658 659 659 659 659 659 659 660 660 660 660 661 663 663 663 663 663 663 663 663 663 663 663 663 663 663 663 663 663 663 664 664 664 664 664 664 663 664 663 664 664 664 664 664 665 665 665 665 667 667 668 668 668 668 668 668 668 668 668 668 668 668 668 668 668 668 668 668 668 668 668 668 668 668 668 668 667 668 668 0 0 0 0 0 0 0 0 0 0 0 0 0 0 0 0 0 0 0 0 0 0 0 0 0 0 0 0 0 0 0 0 0 0 0 0 0 0 0 0 0 0 0 0 0 0 0 0 0 3528 3528 3565 3528 3565 3565 3565 3565 3602 3602 3602 3640 3602 3602 3602 3602 3602 3602 3602 3602 3602 3602 3565 3565 3565 3565 3565 3565 3528 3528 3528 3528 3493 3493 3493 3458 3423 3423 3390 3390 3357 3357 3357 3357 3357 3324 3324 3324 3324 3293 3293 3293 3262 3262 3231 3231 3201 3172 3172 3172 3172 3172 3143 3143 3115
    0 0 0 0 0 0 0 0 0 0 0 0 0 0 0 0 0 0 0 0 0 0 0 0 0 0 0 0 0 0 0 0 0 0 0 0 0 0 0 0 0 0 0 0 0 0 0 0 0 0 0 0 0 0 0 0 0 0 0 0 0 0 0 0 0 0 0 1931 1941 1941 1941 1941 1941 1941 1941 1952 1952 1952 1975 1975 1986 1986 1998 1998 1998 1998 1998 1998 1998 1998 1998 1998 1998 1986 2434 2417 2417 2417 2400 2400 2400 2384 2384 2384 3059 3087 3143 3201 3231 3231 3231 3231 3262 3262 3262 3262 3262 3262 3262 3262 3262 3262 3262 3262 3262 3262 3262 3262 3262 3262 3231 3231 3231 3231 3262 3262 3262 3262 3262 3262 3262 3262 3262 3262 3262 3262 3262 3262 3262 3262 3262 3262 3262 3262 3262 3262 3262 3262 3262 3262 3262 3262 3262 3262 3262 3293 3293 3293 3293 3293 3293 3293 3293 3262 3262 3293 3293 3293 3293 3293 3262 3293 3293 3293 3262 3293 3262 3262 3293 3293 3293 3262 3293 3293 3293 3293 3262 3262 3262 3262 3262 3262 3262 3262 3262 3293 3262 3262 3262 3262 3262 3262 3262 3262 3262 3262 3262 3262 3262 3262 3262 3262 3262 3231 3231 3262 3262 3262 3293 3293 3293 3293 3324 1104 1104 1100 1100 1100 1097 1097 1093 1086 1079 1076 1073 1073 1073 1069 1069 1066 1069 1069 1056 1063 1060 1060 1060 1060 1060 1060 1063 1063 1063 1066 1066 1069 1069 1069 1069 1069 1073 1073 1076 1076 1076 1079 1079 1083 1083 1083 1083 1083 1083 1083 1083 1086 1086 1090 1090 1093 1097 1097 1100 1100 1104 1104 1107 1111 1114 1118 1122 1125 1125 1129 1129 1129 1129 1129 1129 1129 642 642 642 643 643 644 644 644 644 643 644 644 644 644 644 644 644 644 645 645 644 645 645 644 644 644 644 644 645 645 645 645 645 645 647 648 648 647 648 647 648 648 648 648 648 648 648 649 648 649 649 649 649 649 649 649 649 649 649 649 649 649 649 649 649 649 649 650 650 650 650 650 651 651 651 651 651 651 651 653 653 653 653 653 653 651 653 651 651 651 653 653 653 653 653 653 654 654 654 654 654 654 654 655 655 655 655 654 655 655 655 655 655 655 656 656 658 658 658 658 656 656 656 656 656 656 658 658 659 659 659 658 658 658 658 658 658 659 659 659 659 659 659 660 660 660 660 660 663 663 663 663 663 663 663 664 663 663 663 663 663 663 663 663 664 664 664 664 664 664 664 664 664 664 664 664 664 664 664 664 665 665 665 668 668 667 667 668 668 668 668 668 668 668 668 668 668 668 668 668 668 668 668 668 668 668 668 668 668 668 668 668 668 668 669 0 0 0 0 0 0 0 0 0 0 0 0 0 0 0 0 0 0 0 0 0 0 0 0 0 0 0 0 0 0 0 0 0 0 0 0 0 0 0 0 0 0 0 0 0 0 0 0 0 0 3528 3565 3565 3565 3565 3565 3565 3565 3565 3602 3602 3602 3602 3602 3602 3602 3602 3602 3602 3602 3602 3602 3565 3565 3565 3565 3565 3565 3528 3528 3493 3493 3493 3493 3458 3423 3423 3423 3423 3390 3357 3357 3357 3357 3357 3324 3324 3324 3324 3293 3293 3293 3262 3262 3262 3231 3201 3172 3172 3172 3172 3172 3143 3143 3115
    0 0 0 0 0 0 0 0 0 0 0 0 0 0 0 0 0 0 0 0 0 0 0 0 0 0 0 0 0 0 0 0 0 0 0 0 0 0 0 0 0 0 0 0 0 0 0 0 0 0 0 0 0 0 0 0 0 0 0 0 0 0 0 0 0 0 0 1931 1931 1931 1941 1941 1941 1941 1941 1941 1952 1952 1964 1975 1986 1998 1998 1998 1998 1998 1998 1998 1998 1998 1998 1998 1986 2417 2434 2434 2417 2417 2417 2400 2400 2384 2384 2384 3033 3033 3172 3172 3201 3231 3262 3262 3262 3262 3262 3262 3262 3262 3262 3262 3262 3262 3262 3262 3262 3293 3262 3262 3262 3262 3231 3262 3231 3231 3262 3231 3262 3262 3262 3262 3262 3262 3262 3262 3262 3262 3262 3262 3262 3262 3262 3262 3262 3262 3262 3262 3262 3262 3262 3262 3262 3262 3262 3262 3262 3262 3293 3293 3293 3293 3293 3293 3293 3293 3262 3293 3293 3293 3293 3262 3262 3262 3262 3262 3262 3262 3262 3262 3293 3293 3293 3293 3293 3293 3293 3293 3262 3262 3262 3262 3262 3262 3262 3262 3262 3262 3293 3262 3262 3262 3262 3262 3262 3262 3262 3262 3262 3262 3262 3262 3262 3262 3262 3231 3231 3262 3262 3262 3262 3262 3262 3293 3324 1104 1104 1104 1100 1100 1097 1097 1093 1086 1083 1079 1076 1073 1073 1069 1069 1069 1066 1066 1066 1066 1063 1063 1063 1063 1063 1063 1066 1063 1066 1066 1069 1069 1069 1069 1069 1073 1073 1073 1076 1076 1076 1079 1079 1079 1083 1083 1083 1083 1083 1083 1083 1086 1086 1090 1090 1093 1093 1097 1097 1100 1100 1104 1104 1111 1111 1114 1118 1122 1125 1125 1125 1125 1125 1125 1125 1122 642 642 643 643 644 644 644 644 645 644 644 644 644 644 644 644 644 645 645 645 645 645 645 645 645 645 645 645 645 645 645 647 647 647 648 648 648 648 648 648 648 648 648 648 648 648 648 649 649 649 649 649 649 650 650 650 650 650 650 650 649 650 650 650 650 650 650 650 651 651 650 651 651 651 651 651 653 653 653 653 653 654 653 653 653 653 653 653 653 653 653 654 654 654 654 654 654 654 654 654 654 655 655 655 655 655 655 655 655 655 655 655 656 656 656 658 658 658 658 658 658 658 658 658 658 659 659 659 659 659 659 659 658 658 658 659 659 659 659 659 659 659 660 660 661 661 661 661 663 663 663 663 663 663 663 663 663 663 663 663 663 663 663 663 664 664 664 664 664 665 665 664 664 664 664 664 664 664 664 665 665 668 668 668 668 668 668 668 668 668 668 668 668 668 668 668 668 668 668 668 668 668 668 668 668 668 668 668 668 668 668 668 668 668 669 0 0 0 0 0 0 0 0 0 0 0 0 0 0 0 0 0 0 0 0 0 0 0 0 0 0 0 0 0 0 0 0 0 0 0 0 0 0 0 0 0 0 0 0 0 0 0 0 0 0 3528 3565 3565 3565 3565 3565 3565 3565 3565 3565 3602 3602 3602 3602 3602 3640 3640 3640 3640 3640 3602 3602 3602 3565 3565 3565 3565 3565 3528 3528 3493 3493 3458 3458 3458 3423 3423 3390 3390 3357 3357 3357 3357 3357 3324 3324 3324 3293 3293 3293 3293 3262 3262 3262 3231 3231 3201 3201 3172 3172 3172 3172 3143 3143 3115
    0 0 0 0 0 0 0 0 0 0 0 0 0 0 0 0 0 0 0 0 0 0 0 0 0 0 0 0 0 0 0 0 0 0 0 0 0 0 0 0 0 0 0 0 0 0 0 0 0 0 0 0 0 0 0 0 0 0 0 0 0 0 0 0 0 0 0 1931 1941 1931 1941 1941 1941 1941 1941 1941 1952 1952 1964 1975 1986 1998 1998 1998 1998 1998 1998 1998 1998 1998 1998 1998 1998 2417 2434 2434 2417 2417 2417 2400 2400 2384 2384 2384 3006 3059 3087 3087 3172 3201 3201 3231 3262 3262 3262 3262 3262 3262 3262 3262 3262 3262 3262 3262 3262 3262 3262 3262 3262 3262 3231 3231 3231 3231 3231 3231 3231 3231 3262 3262 3262 3262 3262 3262 3262 3262 3262 3262 3262 3262 3262 3262 3262 3262 3262 3262 3262 3262 3262 3262 3262 3262 3262 3262 3262 3262 3293 3262 3293 3293 3293 3293 3293 3262 3262 3293 3293 3293 3293 3293 3262 3262 3262 3262 3262 3262 3262 3262 3293 3293 3293 3293 3293 3293 3293 3293 3262 3262 3262 3262 3262 3262 3262 3262 3262 3262 3262 3262 3262 3262 3262 3262 3262 3262 3262 3262 3262 3262 3262 3262 3262 3262 3262 3262 3231 3262 3262 3262 3262 3262 3262 3293 3293 3262 1107 1104 1104 1100 1100 1097 1093 1086 1083 1079 1076 1076 1073 1073 1073 1069 1069 1069 1066 1066 1066 1066 1066 1066 1066 1066 1066 1066 1066 1069 1069 1069 1069 1069 1069 1073 1073 1073 1073 1076 1076 1076 1079 1079 1079 1079 1083 1083 1083 1083 1083 1086 1086 1090 1090 1090 1093 1097 1097 1097 1100 1100 1104 1107 1111 1111 1114 1118 1122 1122 1122 1122 1122 1122 1118 1118 644 644 644 644 644 645 645 645 645 644 644 644 644 644 644 644 645 645 645 645 645 645 645 645 645 645 645 645 645 645 645 647 647 647 648 648 649 649 649 649 649 649 649 649 649 649 649 649 649 649 649 649 649 650 650 650 650 650 650 650 650 650 650 650 650 650 650 650 651 651 651 651 651 651 651 653 653 653 653 653 654 654 654 654 653 654 654 653 653 654 654 654 654 654 654 654 654 654 655 655 655 655 655 655 655 655 655 655 655 655 655 655 656 656 656 658 658 658 658 658 658 658 658 659 659 659 659 659 659 659 659 659 658 659 659 659 659 659 659 659 659 660 660 661 661 661 661 663 663 663 663 663 663 663 663 663 663 663 664 664 663 663 664 664 664 664 664 664 664 665 665 665 665 664 665 665 665 665 665 665 665 668 668 668 668 668 668 668 668 668 668 668 668 668 668 668 668 668 668 668 668 668 668 668 668 668 668 668 668 668 668 668 668 668 669 0 0 0 0 0 0 0 0 0 0 0 0 0 0 0 0 0 0 0 0 0 0 0 0 0 0 0 0 0 0 0 0 0 0 0 0 0 0 0 0 0 0 0 0 0 0 0 0 0 0 3565 3602 3602 3565 3565 3565 3602 3602 3602 3565 3602 3602 3602 3602 3602 3602 3602 3602 3640 3640 3602 3602 3602 3565 3565 3565 3528 3528 3493 3493 3458 3458 3458 3458 3423 3423 3390 3390 3390 3357 3324 3324 3324 3324 3324 3324 3293 3293 3293 3293 3293 3262 3262 3262 3262 3262 3231 3201 3172 3172 3172 3172 3143 3143 3115
    0 0 0 0 0 0 0 0 0 0 0 0 0 0 0 0 0 0 0 0 0 0 0 0 0 0 0 0 0 0 0 0 0 0 0 0 0 0 0 0 0 0 0 0 0 0 0 0 0 0 0 0 0 0 0 0 0 0 0 0 0 0 0 0 0 0 0 1931 1931 1931 1941 1941 1941 1941 1941 1941 1952 1964 1975 1986 1998 1998 1998 1998 1998 1998 1998 1998 1998 1998 1998 1998 1998 2417 2434 2434 2417 2417 2400 2400 2384 2384 2384 2367 2980 2980 3087 3087 3231 3231 3262 3262 3262 3262 3262 3262 3262 3262 3262 3262 3262 3262 3262 3262 3262 3262 3262 3262 3262 3262 3231 3231 3231 3231 3231 3231 3231 3231 3231 3262 3262 3262 3262 3262 3262 3262 3262 3262 3262 3262 3262 3262 3262 3262 3262 3262 3262 3262 3262 3262 3262 3262 3262 3262 3262 3262 3262 3262 3262 3293 3293 3262 3262 3262 3262 3293 3293 3293 3293 3293 3262 3262 3262 3262 3262 3262 3262 3262 3293 3293 3293 3293 3293 3293 3293 3293 3262 3262 3262 3262 3262 3231 3262 3262 3262 3262 3262 3262 3262 3262 3262 3262 3262 3262 3262 3293 3293 3262 3262 3262 3262 3262 3262 3262 3262 3262 3262 3262 3262 3262 3293 3293 3293 3262 1107 1104 1100 1100 1100 1097 1093 1086 1083 1083 1079 1076 1076 1073 1073 1069 1069 1069 1069 1069 1069 1069 1066 1066 1066 1066 1069 1066 1069 1069 1069 1069 1069 1073 1069 1073 1073 1073 1073 1076 1076 1076 1079 1079 1079 1079 1083 1083 1083 1083 1083 1083 1086 1086 1090 1090 1090 1093 1097 1097 1097 1100 1100 1104 1107 1111 1114 1114 1118 1122 1118 1118 1118 1114 1114 1111 1111 645 645 644 644 645 645 645 645 644 644 644 645 645 645 645 645 645 645 645 645 647 647 647 647 647 647 647 647 647 647 647 647 648 648 649 649 649 649 649 649 649 649 649 649 649 649 649 649 649 649 649 650 650 650 650 650 650 650 650 650 650 650 650 650 650 650 651 651 651 651 651 651 651 651 651 653 653 653 654 654 654 654 654 654 654 654 654 654 654 654 654 654 654 655 654 655 655 655 655 655 655 655 655 655 655 655 655 655 655 655 655 656 656 656 658 658 658 658 658 658 658 659 659 659 659 659 659 659 659 660 659 659 659 659 659 659 659 659 660 659 660 660 661 661 661 663 663 663 663 663 661 663 663 663 664 664 664 664 664 664 664 664 664 665 664 664 665 665 665 665 665 665 665 665 665 665 665 665 665 665 668 667 668 668 668 668 668 668 668 668 668 668 668 668 668 668 668 668 668 668 668 668 668 668 668 668 668 668 668 668 668 668 668 669 0 0 0 0 0 0 0 0 0 0 0 0 0 0 0 0 0 0 0 0 0 0 0 0 0 0 0 0 0 0 0 0 0 0 0 0 0 0 0 0 0 0 0 0 0 0 0 0 0 0 3602 3640 3602 3602 3602 3602 3602 3602 3602 3565 3565 3565 3602 3602 3602 3602 3602 3602 3640 3640 3602 3565 3565 3528 3565 3528 3493 3493 3458 3458 3458 3458 3423 3423 3423 3423 3390 3390 3390 3357 3324 3324 3324 3324 3324 3293 3293 3293 3293 3293 3293 3262 3262 3262 3262 3262 3231 3231 3201 3172 3172 3172 3143 3143 3115
    0 0 0 0 0 0 0 0 0 0 0 0 0 0 0 0 0 0 0 0 0 0 0 0 0 0 0 0 0 0 0 0 0 0 0 0 0 0 0 0 0 0 0 0 0 0 0 0 0 0 0 0 0 0 0 0 0 0 0 0 0 0 0 0 0 0 0 1931 1931 1931 1931 1941 1941 1931 1941 1952 1952 1964 1975 1986 1998 1998 1998 1998 1998 1998 1998 1998 1998 1986 1998 1998 1998 2417 2417 2417 2417 2417 2400 2384 2384 2367 2384 2367 2367 2367 3262 3262 3262 3262 3262 3262 3262 3262 3262 3262 3262 3262 3262 3262 3262 3262 3262 3262 3262 3262 3262 3262 3262 3262 3262 3231 3231 3231 3231 3231 3231 3201 3231 3231 3262 3262 3262 3262 3262 3262 3262 3262 3262 3262 3262 3262 3262 3262 3262 3262 3262 3262 3262 3262 3262 3262 3262 3262 3262 3262 3262 3262 3262 3262 3262 3262 3262 3262 3262 3262 3262 3262 3293 3262 3262 3262 3262 3262 3262 3262 3262 3262 3293 3293 3293 3293 3293 3293 3293 3293 3262 3262 3262 3262 3231 3231 3262 3262 3262 3262 3231 3231 3262 3262 3262 3262 3262 3262 3262 3293 3293 3262 3262 3293 3262 3293 3262 3262 3262 3262 3262 3262 3293 3293 3293 3293 3293 3262 1104 1104 1104 1100 1100 1097 1093 1090 1083 1083 1079 1076 1076 1076 1073 1073 1069 1069 1069 1069 1069 1069 1069 1069 1069 1069 1069 1069 1069 1069 1069 1069 1073 1073 1073 1073 1073 1073 1073 1073 1076 1076 1076 1079 1079 1079 1083 1083 1083 1083 1083 1083 1083 1086 1086 1090 1090 1090 1093 1097 1097 1097 1100 1100 1104 1107 1111 1114 1114 1114 1114 1114 1114 1114 1111 1107 1107 645 645 644 645 645 645 645 645 644 645 645 645 645 645 645 645 645 645 645 645 647 647 647 647 647 647 647 647 647 647 648 648 648 648 649 649 649 649 649 649 649 649 649 649 649 649 649 649 649 649 649 650 650 650 650 650 650 650 650 650 650 650 650 650 651 651 651 651 651 651 653 653 651 651 653 653 653 653 654 654 654 654 654 654 654 654 654 654 654 654 655 655 655 655 655 655 655 655 655 656 656 656 655 655 655 655 655 655 655 655 655 656 656 656 656 658 658 658 659 659 659 659 659 659 659 659 659 659 659 660 659 658 659 659 659 659 659 659 660 660 660 660 661 661 661 663 663 663 663 663 663 663 663 663 664 664 664 664 664 663 663 663 664 665 665 665 665 665 665 667 667 665 665 667 667 667 667 665 667 665 668 667 668 668 668 668 668 668 668 668 668 668 668 668 668 668 668 668 668 668 668 668 668 668 668 668 668 668 668 668 668 668 668 0 0 0 0 0 0 0 0 0 0 0 0 0 0 0 0 0 0 0 0 0 0 0 0 0 0 0 0 0 0 0 0 3565 0 0 0 0 0 0 0 0 0 0 0 0 0 0 0 0 0 3602 3602 3640 3602 3602 3565 3602 3602 3565 3565 3565 3565 3565 3602 3565 3602 3602 3602 3602 3640 3602 3602 3565 3565 3528 3565 3528 3493 3493 3458 3458 3458 3458 3423 3423 3423 3423 3423 3390 3390 3357 3357 3324 3324 3324 3293 3293 3293 3293 3293 3262 3262 3262 3262 3262 3262 3262 3231 3201 3201 3172 3172 3172 3143 3143 3143
    0 0 0 0 0 0 0 0 0 0 0 0 0 0 0 0 0 0 0 0 0 0 0 0 0 0 0 0 0 0 0 0 0 0 0 0 0 0 0 0 0 0 0 0 0 0 0 0 0 0 0 0 0 0 0 0 0 0 0 0 0 0 0 0 0 0 1920 1931 1931 1931 1941 1941 1941 1941 1941 1952 1952 1964 1975 1986 1998 1998 1998 1998 1998 1998 1998 1998 1986 1986 1986 1998 1998 2384 2417 2417 2400 2400 2384 2384 2384 2367 2367 2367 2367 3262 3262 3262 3262 3262 3262 3262 3262 3262 3262 3262 3262 3262 3262 3262 3262 3262 3262 3262 3262 3262 3262 3262 3262 3262 3262 3231 3231 3231 3231 3231 3231 3201 3231 3231 3262 3262 3262 3262 3262 3262 3262 3262 3262 3262 3262 3262 3262 3262 3262 3262 3262 3262 3262 3262 3262 3262 3262 3262 3262 3262 3262 3262 3262 3262 3262 3262 3262 3262 3262 3262 3262 3262 3262 3262 3262 3262 3262 3262 3262 3262 3262 3262 3293 3293 3293 3293 3293 3293 3293 3293 3262 3231 3231 3231 3231 3231 3231 3231 3262 3262 3231 3231 3262 3262 3262 3262 3262 3262 3262 3262 3293 3262 3262 3293 3293 3293 3293 3262 3262 3262 3293 3262 3293 3293 3293 3293 3293 1107 1104 1104 1100 1100 1100 1097 1097 1090 1086 1086 1083 1079 1079 1076 1073 1073 1073 1073 1069 1069 1069 1069 1069 1069 1069 1069 1069 1069 1069 1069 1069 1073 1073 1073 1073 1073 1073 1073 1073 1073 1073 1073 1076 1076 1079 1079 1079 1079 1083 1083 1083 1083 1083 1086 1086 1086 1086 1090 1090 1093 1097 1097 1097 1100 1100 1104 1107 1111 1111 1111 1111 1111 1111 1111 1107 1107 1104 1104 645 645 645 645 645 645 645 645 645 645 645 645 647 645 645 645 647 647 647 647 647 648 648 648 647 648 648 648 647 648 648 648 648 649 649 649 649 649 649 649 649 649 649 648 648 649 649 649 649 649 650 650 650 650 650 650 650 650 650 650 651 651 651 651 651 651 653 653 653 653 653 651 653 653 653 653 653 653 654 654 654 654 654 654 654 654 655 655 655 655 655 655 655 655 655 655 655 655 656 656 656 655 655 655 655 655 655 655 655 655 656 656 656 658 658 658 658 659 658 659 659 659 659 659 659 659 659 660 660 660 658 659 659 659 659 659 660 660 660 661 661 661 661 661 663 663 663 732 661 663 663 663 663 663 664 664 664 664 663 663 664 664 667 667 665 665 667 668 668 668 667 667 668 668 667 667 667 667 668 668 668 668 668 668 668 668 668 668 668 668 668 668 669 668 668 668 668 668 668 668 668 668 668 668 668 668 668 668 668 0 0 0 0 0 0 3458 3458 3458 3458 3458 3458 3493 3493 3528 3528 3528 3528 3565 0 0 3602 3602 3602 0 0 3602 3640 3640 3640 0 0 3640 3602 3602 3602 3565 3565 3565 3528 3528 3565 3565 3565 3602 3565 3528 3528 3528 0 0 0 0 3602 3640 3640 3602 3602 3565 3565 3565 3565 3565 3565 3565 3565 3565 3565 3565 3602 3565 3602 3602 3602 3565 3565 3565 3528 3565 3528 3528 3528 3458 3458 3458 3458 3423 3423 3423 3423 3423 3390 3390 3390 3357 3324 3324 3324 3293 3293 3293 3293 3293 3262 3262 3262 3262 3262 3262 3231 3201 3201 3201 3172 3172 3172 3172 3143 3143
    0 0 0 0 0 0 0 0 0 0 0 0 0 0 0 0 0 0 0 0 0 0 0 0 0 0 0 0 0 0 0 0 0 0 0 0 0 0 0 0 0 0 0 0 0 0 0 0 0 0 0 0 0 0 0 0 0 0 0 0 0 0 0 0 0 0 1920 1920 1931 1931 1931 1931 1941 1931 1941 1952 1952 1964 1975 1986 1998 1998 1998 1998 1998 1998 1998 1986 1986 1986 1986 1986 1998 2384 2400 2400 2384 2384 2384 2367 2367 2367 2351 2367 2367 3262 3262 3262 3262 3262 3231 3262 3262 3262 3262 3262 3262 3262 3262 3262 3262 3262 3262 3262 3262 3262 3262 3262 3262 3262 3262 3262 3231 3231 3231 3262 3231 3231 3231 3262 3262 3262 3262 3262 3262 3262 3262 3262 3262 3262 3262 3262 3262 3262 3262 3262 3262 3262 3262 3262 3262 3262 3262 3262 3262 3262 3262 3262 3262 3262 3262 3262 3262 3262 3262 3262 3262 3262 3262 3262 3262 3262 3262 3262 3262 3262 3262 3262 3293 3293 3293 3293 3293 3293 3293 3293 3262 3231 3231 3231 3231 3231 3231 3231 3262 3262 3231 3231 3262 3262 3262 3262 3262 3262 3262 3262 3293 3293 3262 3293 3293 3293 3293 3262 3262 3262 3293 3262 3293 3262 3293 3293 3262 1107 1104 1104 1100 1100 1100 1097 1097 1090 1086 1086 1083 1079 1079 1076 1073 1073 1073 1073 1073 1073 1069 1069 1069 1069 1069 1069 1069 1069 1069 1069 1069 1073 1073 1073 1073 1073 1073 1073 1073 1073 1073 1073 1076 1076 1079 1079 1079 1079 1079 1083 1083 1083 1083 1086 1086 1086 1086 1090 1090 1093 1093 1097 1097 1097 1100 1100 1104 1107 1107 1111 1107 1107 1107 1107 1104 1104 1100 1100 1100 645 644 645 645 645 645 645 645 645 645 647 647 647 647 647 647 647 649 648 648 648 649 648 648 649 649 648 648 648 649 649 649 649 649 649 649 649 649 649 649 649 649 649 648 649 648 649 649 649 650 650 650 649 650 650 650 650 650 650 651 651 651 653 653 653 654 654 654 653 653 651 651 653 653 653 653 653 654 654 654 654 654 655 655 655 655 655 655 655 655 655 655 655 655 655 656 656 656 658 656 655 655 655 655 655 655 3493 3493 3493 3493 3528 656 656 658 658 658 659 658 658 659 659 659 659 659 659 659 659 660 660 658 735 736 736 736 736 736 661 661 661 733 732 732 733 732 732 732 733 663 663 663 664 664 664 664 663 664 664 663 663 664 664 667 667 667 665 668 668 668 668 667 667 668 668 668 668 667 668 668 669 668 668 668 668 668 668 668 668 669 668 669 669 669 668 668 667 667 668 667 667 667 668 668 668 668 668 667 667 0 0 0 0 0 0 0 3458 3493 3458 3493 3458 3493 3493 3493 3528 3528 3528 3565 3565 3565 3565 3565 3602 3565 3602 3602 3565 3602 3602 3602 3602 3640 3640 3602 3602 3602 3565 3565 3565 3565 3565 3565 3602 3602 3602 3565 3565 3528 3528 3528 3528 3565 3565 3602 3640 3640 3602 3602 3602 3565 3565 3565 3565 3528 3528 3565 3565 3565 3565 3528 3528 3528 3528 3602 3565 3565 3565 3528 3565 3528 3528 3528 3493 3493 3458 3458 3423 3423 3423 3423 3423 3390 3390 3390 3357 3324 3324 3324 3293 3293 3293 3293 3293 3262 3293 3262 3262 3262 3262 3262 3231 3231 3201 3201 3201 3201 3172 3172 3143
    0 0 0 0 0 0 0 0 0 0 0 0 0 0 0 0 0 0 0 0 0 0 0 0 0 0 0 0 0 0 0 0 0 0 0 0 0 0 0 0 0 0 0 0 0 0 0 0 0 0 0 0 0 0 0 0 0 0 0 0 0 0 0 0 0 0 1920 1931 1941 1931 1931 1941 1941 1941 1941 1952 1952 1964 1975 1986 1998 1998 1998 2009 1998 1998 1998 1986 1986 1986 1986 1986 2384 2384 2400 2384 2384 2384 2384 2367 2351 2351 2367 2367 2367 3262 3262 3262 3262 3231 3231 3262 3262 3262 3262 3262 3262 3262 3262 3231 3262 3262 3262 3262 3262 3262 3262 3262 3262 3262 3262 3231 3231 3231 3262 3262 3231 3231 3231 3262 3262 3262 3262 3262 3262 3262 3262 3262 3262 3262 3262 3262 3262 3262 3231 3262 3262 3262 3262 3262 3262 3262 3262 3262 3262 3262 3262 3262 3262 3262 3262 3262 3262 3262 3262 3262 3262 3262 3262 3262 3293 3293 3262 3293 3293 3262 3262 3262 3293 3293 3293 3293 3293 3293 3293 3293 3262 3231 3231 3262 3231 3231 3231 3231 3231 3231 3231 3231 3231 3231 3262 3262 3262 3262 3262 3262 3293 3262 3262 3293 3293 3293 3293 3262 3262 3262 3293 3293 3293 3262 3293 3262 3262 1107 1107 1104 1104 1104 1100 1097 1097 1090 1090 1086 1083 1083 1079 1076 1076 1073 1073 1073 1073 1069 1069 1069 1069 1069 1069 1069 1069 1069 1069 1069 1073 1073 1073 1073 1073 1073 1073 1073 1073 1073 1073 1073 1076 1076 1076 1076 1079 1079 1079 1079 1079 1079 1083 1083 1083 1086 1086 1086 1090 1090 1093 1093 1093 1097 1097 1100 1100 1104 1104 1107 1104 1104 1104 1104 1100 1100 1100 1100 1100 1100 645 645 645 645 645 645 645 645 645 645 647 647 647 647 647 649 649 649 650 649 649 649 649 649 649 648 649 649 649 649 649 649 649 649 650 649 649 649 650 649 649 648 648 649 647 647 647 647 649 649 649 649 650 650 650 650 650 653 653 653 653 653 654 654 654 654 654 653 654 651 651 651 653 653 653 653 653 653 654 654 654 654 654 654 654 655 655 655 655 655 655 655 655 655 655 656 658 658 658 655 655 655 655 655 3493 3493 3493 3493 3493 3528 3528 655 655 658 658 658 658 659 659 659 659 658 658 658 659 659 736 736 735 736 736 736 736 736 736 736 736 736 735 733 733 735 735 733 733 733 735 735 735 735 736 736 736 736 736 736 736 736 738 738 667 667 667 668 668 668 669 0 0 0 668 668 0 0 668 0 0 0 0 0 0 0 0 668 0 668 669 668 670 669 669 0 0 0 0 0 0 0 0 668 0 0 0 0 0 0 0 0 0 0 0 0 0 3458 3493 3493 3528 3493 3528 3528 3528 3528 3528 3565 3565 3565 3565 3565 3565 3602 3565 3602 3602 3565 3565 3602 3602 3602 3602 3602 3602 3602 3602 3565 3565 3565 3565 3565 3565 3565 3565 3565 3528 3528 3528 3528 3528 3528 3565 3565 3602 3602 3602 3565 3565 3565 3565 3528 3528 3528 3528 3528 3528 3565 3565 3565 3565 3528 3528 3528 3565 3565 3565 3565 3565 3565 3528 3528 3528 3528 3493 3458 3458 3423 3423 3423 3423 3423 3390 3390 3390 3357 3324 3324 3293 3293 3293 3293 3293 3293 3262 3262 3262 3262 3262 3262 3262 3231 3231 3231 3231 3201 3201 3172 3172 3172
    0 0 0 0 0 0 0 0 0 0 0 0 0 0 0 0 0 0 0 0 0 0 0 0 0 0 0 0 0 0 0 0 0 0 0 0 0 0 0 0 0 0 0 0 0 0 0 0 0 0 0 0 0 0 0 0 0 0 0 0 0 0 0 0 1920 1941 1920 1931 1941 1931 1941 1941 1952 1941 1941 1952 1952 1964 1975 1986 1998 2009 2009 2009 1998 1998 1998 1998 1986 1986 1986 1986 2384 2384 2400 2384 2384 2384 2367 2367 2351 2351 2351 2367 2367 3262 3262 3231 3262 3231 3231 3231 3262 3262 3262 3262 3231 3262 3262 3231 3262 3262 3262 3262 3262 3262 3262 3262 3262 3262 3262 3231 3231 3231 3231 3262 3231 3231 3231 3262 3262 3262 3262 3262 3262 3262 3262 3262 3262 3262 3262 3262 3262 3262 3231 3231 3262 3262 3262 3262 3262 3262 3262 3262 3262 3262 3262 3262 3262 3262 3262 3262 3262 3262 3262 3262 3262 3262 3262 3293 3293 3262 3262 3293 3293 3262 3262 3262 3262 3293 3293 3293 3293 3293 3293 3293 3262 3231 3231 3262 3231 3231 3231 3262 3262 3262 3231 3231 3262 3262 3262 3262 3262 3262 3262 3293 3293 3293 3262 3293 3293 3324 3293 3293 3293 3293 3293 3293 3293 3262 3262 3231 3201 1111 1107 1104 1104 1104 1100 1097 1097 1090 1090 1090 1086 1083 1083 1079 1076 1073 1073 1073 1073 1069 1069 1069 1069 1069 1069 1069 1069 1069 1069 1069 1073 1073 1073 1073 1073 1073 1073 1073 1073 1073 1073 1073 1076 1076 1076 1076 1079 1076 1079 1079 1079 1079 1079 1083 1083 1083 1086 1086 1086 1086 1090 1090 1093 1097 1097 1100 1100 1100 1104 1104 1104 1100 1100 1100 1100 1100 1097 1097 1100 1100 1097 1100 1100 645 645 645 645 645 647 647 648 648 647 645 649 650 650 649 650 650 650 650 650 650 650 650 650 650 1066 1069 1066 1066 1066 1069 1069 1069 1069 1069 1069 650 650 1066 1066 1066 1066 1063 1066 1066 1066 649 649 649 649 650 650 650 650 651 653 653 0 0 0 654 0 0 0 0 0 0 651 651 0 0 0 0 653 3357 3390 3390 3390 3357 3357 3357 3357 3458 3458 3493 3458 3493 3493 3493 3493 3493 3493 658 658 3493 3493 3493 3458 3458 3458 3458 3493 3493 3458 3493 3493 3528 3528 3528 654 656 656 658 658 658 658 659 659 658 746 744 658 738 738 738 736 736 736 736 736 736 736 736 736 736 735 733 735 735 735 735 735 735 735 735 735 735 735 736 736 736 736 736 736 736 738 738 738 667 667 744 744 0 0 0 0 0 0 0 0 0 0 0 0 0 0 0 0 0 0 0 0 0 0 0 0 0 0 0 0 0 0 0 0 0 0 0 0 0 0 0 0 0 0 0 0 0 0 0 0 3458 3493 3493 3528 3528 3528 3528 3528 3528 3565 3565 3565 3602 3565 3565 3565 3602 3602 3602 3602 3565 3565 3602 3602 3565 3565 3602 3565 3565 3565 3565 3565 3565 3565 3565 3565 3565 3565 3565 3528 3528 3528 3528 3528 3528 3528 3565 3602 3565 3602 3565 3565 3565 3565 3528 3528 3528 3528 3528 3565 3565 3565 3565 3565 3565 3528 3528 3602 3565 3565 3565 3565 3565 3565 3565 3565 3528 3528 3493 3458 3423 3423 3423 3423 3423 3390 3390 3390 3357 3357 3324 3324 3293 3293 3293 3293 3293 3262 3293 3262 3262 3262 3262 3262 3231 3231 3231 3231 3201 3172 3172 3172 3172
    0 0 0 0 0 0 0 0 0 0 0 0 0 0 0 0 0 0 0 0 0 0 0 0 0 0 0 0 0 0 0 0 0 0 0 0 0 0 0 0 0 0 0 0 0 0 0 0 0 0 0 0 0 0 0 0 0 0 0 0 0 0 0 0 0 1941 1920 1931 1941 1941 1931 1941 1941 1941 1941 1952 1952 1964 1975 1986 1998 2009 2009 2009 1998 1998 1998 1986 1986 1986 1986 1986 2384 2384 2384 2367 2367 2367 2367 2351 2351 2351 2351 2367 2367 3262 3262 3231 3262 3262 3231 3231 3262 3262 3262 3262 3231 3262 3262 3231 3262 3262 3262 3262 3262 3262 3262 3262 3262 3262 3262 3231 3231 3231 3231 3262 3231 3231 3231 3262 3262 3262 3262 3262 3262 3262 3262 3262 3262 3262 3262 3262 3231 3262 3231 3231 3231 3231 3231 3262 3262 3262 3262 3262 3262 3262 3262 3262 3262 3262 3262 3262 3262 3262 3262 3262 3262 3262 3293 3293 3293 3293 3262 3293 3293 3262 3262 3262 3262 3293 3293 3262 3262 3293 3293 3262 3231 3231 3231 3262 3231 3231 3231 3262 3262 3262 3231 3262 3262 3262 3262 3262 3262 3262 3262 3293 3293 3293 3262 3293 3293 3324 3293 3293 3293 3293 3293 3293 3293 3262 3262 3231 3172 1111 1107 1104 1100 1100 1100 1097 1093 1090 1090 1090 1086 1083 1083 1079 1076 1073 1073 1073 1073 1073 1069 1073 1073 1073 1069 1069 1069 1069 1069 1069 1073 1073 1073 1073 1073 1073 1073 1073 1073 1073 1073 1073 1073 1073 1076 1076 1076 1076 1076 1079 1076 1076 1079 1079 1083 1083 1083 1083 1086 1086 1090 1090 1090 1093 1097 1097 1097 1100 1100 1100 1100 1100 1097 1097 1097 1097 1097 1097 1097 1100 1097 1100 1104 1104 1104 1104 1100 1107 1107 1107 1107 1107 1107 650 650 653 651 651 1069 1069 1073 1073 1073 1073 1069 1069 1069 1066 1066 1066 1066 1066 1066 1066 1066 1069 1069 1066 1066 1066 1063 1063 1063 1063 1063 1063 1066 1066 1066 1066 1069 1073 650 650 650 650 650 650 650 0 0 0 0 0 0 0 0 0 0 0 0 0 0 0 0 0 0 3390 3423 3423 3357 3390 3357 3357 3357 3458 3458 3493 3458 3493 3458 3458 3493 3493 3493 3493 3493 3493 3493 3493 3458 3458 3458 3458 3458 3458 3458 3458 3493 3493 3493 3493 3493 3493 3528 3528 756 756 754 751 751 749 747 746 744 741 739 738 736 736 736 736 736 736 736 736 736 736 736 735 735 735 736 735 735 735 735 735 735 735 736 736 736 736 736 736 738 738 738 741 741 743 743 744 0 0 0 0 0 0 0 0 0 0 0 0 0 0 0 0 0 0 0 0 0 0 0 0 0 0 0 0 0 0 0 0 0 0 0 0 0 0 0 0 0 0 0 0 0 0 0 3458 3493 3458 3493 3493 3528 3528 3528 3528 3528 3565 3565 3565 3565 3565 3565 3565 3565 3602 3565 3602 3565 3565 3565 3565 3565 3565 3565 3565 3565 3565 3565 3565 3565 3565 3565 3565 3565 3565 3565 3565 3528 3528 3528 3528 3528 3528 3528 3565 3565 3565 3565 3565 3565 3565 3565 3528 3528 3528 3528 3528 3565 3565 3565 3565 3565 3602 3602 3565 3602 3565 3565 3565 3565 3602 3565 3565 3565 3528 3528 3458 3458 3423 3423 3423 3423 3423 3390 3390 3390 3390 3324 3324 3324 3324 3293 3293 3293 3293 3293 3293 3262 3262 3262 3262 3262 3231 3231 3231 3231 3201 3201 3172 3172 3172</data></dframe>
</opencv_storage>
