<?xml version="1.0"?>
<opencv_storage>
<dframe type_id="opencv-matrix">
  <rows>35</rows>
  <cols>640</cols>
  <dt>w</dt>
  <data>
    0 0 0 0 0 0 0 0 0 0 0 0 0 0 0 0 0 0 0 0 0 0 0 0 0 0 0 0 0 0 0 0 0 0 0 0 0 0 0 0 0 0 0 0 0 0 0 0 0 0 0 0 0 0 0 0 0 0 0 0 0 0 0 0 0 0 0 0 0 0 0 0 0 0 0 0 0 0 0 0 0 0 0 0 0 0 0 0 0 0 0 0 0 0 0 0 0 2160 2187 2187 2201 2187 2187 2187 2201 2201 2201 2201 2215 2215 2230 2230 2230 2244 2244 2244 2244 2244 2680 2659 2659 2639 2659 2639 2639 2639 2639 2659 2659 2659 2659 2680 3565 3565 3565 3565 3565 3602 3602 3602 3640 3640 3640 3640 3679 3640 3640 3679 3679 3679 3640 3640 3640 3640 3640 3640 3640 3640 3679 3679 3679 3679 3679 3679 3679 3679 3640 3640 3640 3640 3679 3640 3640 3640 3640 3640 3640 3679 3679 3679 3679 3679 3679 3679 3679 3679 3679 3679 3679 3640 3679 3679 3679 3679 3679 3679 3679 3679 3679 3679 3679 3718 3718 3718 3718 3718 3718 3718 3718 3718 3679 3679 3679 3679 3679 3679 3679 3679 3679 3679 3679 3679 3718 3718 3718 3718 3718 3718 3718 3718 3718 3718 3718 3759 3718 3759 3759 3718 3759 3759 3759 3759 3759 3759 3759 3759 3800 3759 3759 3759 3759 3800 3759 3759 3759 3759 3759 3800 3800 3800 3800 3800 3800 3800 3800 3800 3800 3800 3800 3800 3800 3800 3800 3800 3800 3842 3842 3842 3842 3800 3800 3800 3800 3800 3800 3800 3842 3842 3842 3842 3842 3842 3842 3842 3842 3842 3842 3842 3842 3842 3842 3842 3842 3842 3842 3842 3842 3842 3842 3842 3842 3842 3842 3842 3885 3842 3885 3885 3885 3885 3885 3885 3885 3930 3930 3930 3930 3885 3885 3885 3885 3930 673 673 673 673 673 672 672 672 672 672 672 670 670 670 669 669 668 668 667 668 667 667 665 665 664 664 664 663 663 661 660 660 660 660 660 660 660 660 660 659 659 658 658 656 656 656 655 656 655 655 655 655 655 655 655 654 654 653 653 653 653 651 650 650 650 650 650 649 649 648 648 647 645 645 645 645 644 644 644 644 644 644 644 644 644 643 643 643 642 641 641 641 641 641 641 639 639 638 638 638 638 637 637 637 636 636 635 635 635 634 634 634 634 634 634 632 632 632 631 630 630 630 630 630 630 629 629 628 628 628 628 627 627 627 627 627 627 627 625 625 625 625 624 624 624 624 624 624 623 623 623 623 622 621 621 621 621 621 621 620 620 620 620 620 619 619 618 618 617 617 617 615 615 615 615 615 615 614 614 613 613 613 612 612 611 611 611 611 610 610 611 610 611 611 610 610 609 608 608 608 608 608 608 607 607 606 603 604 604 603 603 603 603 601 601 601 600 599 599 598 598 598 598 598 598 598 598 0 0 0 0 0 0 0 0 0 0 0 0 0 0 0 0 0 0 0 0 0 0 0 0 0 0 0 0 0 0 0 0 0 0 0 0 0 0 0 0 0 0 0 0 0 0 0 0 0 0 0 0 0 0 0 0 0 0 0 3262 3293 3293 3293 3293 3293 3293 3293 3293 3262 3262 3262 3231 3231 3201 3201 3201 3201 3201 3201 3201 3201
    0 0 0 0 0 0 0 0 0 0 0 0 0 0 0 0 0 0 0 0 0 0 0 0 0 0 0 0 0 0 0 0 0 0 0 0 0 0 0 0 0 0 0 0 0 0 0 0 0 0 0 0 0 0 0 0 0 0 0 0 0 0 0 0 0 0 0 0 0 0 0 0 0 0 0 0 0 0 0 0 0 0 0 0 0 0 0 0 0 0 0 0 0 0 0 0 2120 2160 2187 2187 2201 2187 2187 2187 2187 2201 2201 2201 2215 2215 2230 2230 2230 2244 2244 2244 2244 2244 2680 2680 2680 2659 2659 2659 2659 2659 2659 2659 2659 2659 2659 2680 3602 3602 3565 3602 3602 3602 3602 3602 3602 3602 3640 3640 3640 3640 3640 3640 3640 3640 3640 3640 3602 3602 3640 3640 3640 3640 3679 3679 3679 3679 3640 3679 3640 3640 3640 3640 3640 3640 3640 3640 3640 3640 3640 3640 3640 3679 3679 3679 3679 3679 3679 3679 3679 3679 3679 3679 3679 3640 3679 3679 3679 3679 3679 3679 3679 3679 3679 3679 3679 3679 3718 3718 3718 3718 3718 3718 3718 3718 3679 3679 3679 3679 3679 3679 3679 3679 3679 3679 3679 3679 3679 3718 3718 3679 3718 3718 3718 3718 3718 3718 3718 3759 3718 3718 3718 3718 3759 3759 3759 3718 3759 3759 3759 3759 3759 3759 3759 3759 3759 3759 3759 3759 3759 3759 3800 3800 3800 3800 3800 3800 3800 3800 3800 3800 3800 3800 3800 3800 3800 3800 3800 3800 3842 3800 3842 3842 3800 3800 3800 3800 3800 3800 3800 3800 3800 3842 3842 3842 3800 3842 3842 3842 3842 3842 3842 3842 3842 3842 3842 3842 3842 3842 3842 3842 3842 3842 3842 3842 3842 3842 3885 3842 3885 3885 3885 3885 3885 3885 3885 3885 3885 3885 3885 3885 3885 3885 3885 3885 3885 3885 3885 673 673 673 673 673 672 672 672 672 672 670 670 670 669 668 668 668 667 668 667 665 665 665 665 664 664 663 663 661 660 660 660 660 660 660 660 660 659 659 659 658 658 656 656 655 655 655 655 655 655 655 655 655 654 654 653 653 653 653 653 651 650 650 650 650 649 649 648 648 647 647 645 645 645 645 645 644 644 644 644 644 644 644 643 643 643 643 642 641 641 641 641 641 641 639 639 638 638 638 637 637 637 636 636 636 635 635 635 634 634 634 634 634 634 632 632 631 630 630 630 630 630 630 629 629 629 628 627 627 627 627 627 625 627 625 627 625 625 625 625 625 624 624 623 623 623 622 622 622 623 622 622 622 621 621 621 621 621 620 620 620 620 619 619 618 618 617 617 617 615 615 615 614 614 614 614 614 613 613 613 613 612 611 611 611 610 611 611 611 610 610 610 610 610 610 609 608 608 608 608 607 607 607 607 606 603 604 603 603 603 603 601 601 600 601 599 598 598 598 598 598 598 599 599 599 599 0 0 0 0 0 0 0 0 0 0 0 0 0 0 0 0 0 0 0 0 0 0 0 0 0 0 0 0 0 0 0 0 0 0 0 0 0 0 0 0 0 0 0 0 0 0 0 0 0 0 0 0 0 0 0 0 0 0 0 0 3293 3293 3293 3324 3293 3293 3293 3293 3262 3262 3262 3231 3231 3201 3201 3201 3201 3201 3172 3201 3201
    0 0 0 0 0 0 0 0 0 0 0 0 0 0 0 0 0 0 0 0 0 0 0 0 0 0 0 0 0 0 0 0 0 0 0 0 0 0 0 0 0 0 0 0 0 0 0 0 0 0 0 0 0 0 0 0 0 0 0 0 0 0 0 0 0 0 0 0 0 0 0 0 0 0 0 0 0 0 0 0 0 0 0 0 0 0 0 0 0 0 0 0 0 0 0 0 0 2174 2174 2187 2201 2187 2187 2187 2201 2201 2201 2201 2215 2215 2230 2230 2230 2244 2244 2244 2244 2680 2680 2680 2680 2680 2659 2659 2659 2659 2659 2659 2659 2659 2659 2680 3602 3602 3602 3602 3602 3602 3602 3602 3602 3602 3602 3640 3640 3640 3640 3640 3640 3640 3640 3640 3640 3602 3640 3640 3640 3640 3679 3679 3640 3640 3640 3640 3640 3640 3640 3640 3640 3640 3640 3640 3640 3640 3640 3640 3640 3679 3679 3679 3679 3679 3718 3679 3679 3679 3679 3679 3679 3640 3679 3679 3679 3679 3679 3679 3679 3679 3679 3679 3679 3679 3718 3718 3718 3718 3718 3718 3718 3718 3679 3679 3679 3679 3679 3679 3679 3679 3679 3679 3679 3679 3679 3718 3679 3679 3718 3718 3718 3718 3718 3718 3718 3718 3718 3718 3718 3718 3718 3718 3718 3718 3759 3759 3759 3759 3759 3759 3759 3759 3759 3759 3759 3759 3759 3759 3759 3800 3800 3800 3800 3800 3800 3800 3800 3800 3800 3800 3800 3800 3800 3800 3800 3800 3800 3800 3800 3800 3800 3800 3800 3800 3800 3800 3800 3800 3800 3842 3800 3800 3800 3842 3800 3842 3842 3842 3842 3842 3842 3842 3842 3842 3842 3842 3842 3842 3842 3842 3842 3842 3842 3842 3842 3842 3842 3842 3885 3885 3885 3885 3842 3885 3885 3885 3885 3885 3885 3885 3885 3885 3885 3885 674 674 674 673 674 673 672 672 672 672 672 670 670 670 670 668 668 668 667 667 667 665 665 665 665 664 664 664 663 661 661 661 660 660 659 660 659 660 659 659 658 658 658 656 656 655 655 655 655 655 655 655 655 654 654 653 653 653 653 651 651 650 650 650 650 649 649 649 649 648 648 647 645 645 645 645 645 644 644 644 644 644 644 643 643 643 643 643 642 641 641 641 641 641 641 639 639 638 638 638 637 636 636 636 636 635 635 635 635 634 634 634 634 634 634 632 632 631 630 630 630 630 629 629 629 629 629 628 628 628 627 627 627 627 627 625 625 625 625 625 625 625 624 624 623 623 622 622 622 622 622 622 621 621 621 621 620 620 620 620 620 619 619 619 618 617 617 617 615 617 615 615 614 614 614 614 614 614 613 613 613 612 612 611 611 610 610 610 609 610 610 610 610 610 610 609 608 608 608 608 607 607 607 607 607 604 603 603 603 603 603 601 601 601 600 600 598 598 598 598 598 599 598 599 599 600 0 0 0 0 0 0 0 0 0 0 0 0 0 0 0 0 0 0 0 0 0 0 0 0 0 0 0 0 0 0 0 0 0 0 0 0 0 0 0 0 0 0 0 0 0 0 0 0 0 0 0 0 0 0 0 0 0 0 0 0 0 3293 3324 3293 3324 3324 3324 3293 3293 3293 3262 3262 3231 3201 3201 3201 3231 3201 3201 3201 3201 3201
    0 0 0 0 0 0 0 0 0 0 0 0 0 0 0 0 0 0 0 0 0 0 0 0 0 0 0 0 0 0 0 0 0 0 0 0 0 0 0 0 0 0 0 0 0 0 0 0 0 0 0 0 0 0 0 0 0 0 0 0 0 0 0 0 0 0 0 0 0 0 0 0 0 0 0 0 0 0 0 0 0 0 0 0 0 0 0 0 0 0 0 0 0 0 0 0 0 2160 2174 2187 2201 2187 2187 2187 2201 2201 2201 2201 2201 2215 2215 2230 2230 2244 2244 2244 2244 2244 2659 2680 2680 2680 2659 2659 2659 2659 2659 2659 2659 2659 2659 2659 2680 3565 3565 3602 3602 3602 3602 3602 3602 3602 3602 3602 3602 3602 3602 3640 3640 3640 3640 3640 3640 3640 3640 3640 3640 3640 3640 3640 3640 3640 3640 3640 3640 3640 3640 3602 3602 3640 3602 3602 3602 3640 3640 3679 3679 3679 3679 3679 3679 3679 3679 3679 3679 3679 3679 3679 3679 3679 3679 3679 3679 3679 3679 3679 3679 3679 3679 3679 3679 3679 3679 3679 3679 3679 3679 3718 3718 3718 3679 3679 3679 3679 3679 3679 3640 3679 3679 3679 3679 3679 3679 3679 3679 3679 3679 3679 3679 3679 3679 3679 3718 3718 3718 3718 3718 3718 3718 3718 3718 3718 3718 3718 3718 3718 3759 3759 3759 3759 3759 3759 3759 3759 3759 3759 3759 3759 3759 3759 3759 3800 3800 3800 3800 3800 3800 3800 3800 3800 3800 3800 3800 3800 3800 3800 3800 3800 3800 3800 3800 3800 3800 3800 3800 3800 3800 3842 3842 3842 3800 3842 3800 3800 3800 3800 3800 3800 3800 3800 3800 3800 3842 3842 3842 3842 3842 3842 3842 3842 3842 3842 3842 3842 3842 3842 3842 3885 3885 3885 3842 3885 3885 3885 3885 3885 3885 3885 3885 3885 3885 3885 674 674 673 673 673 673 672 672 672 672 672 670 670 670 669 668 668 668 667 667 667 665 665 665 665 664 664 664 663 663 661 661 661 660 659 660 659 660 659 659 658 658 658 656 656 655 655 655 655 655 655 655 655 654 654 653 653 653 653 651 651 650 650 650 650 649 649 649 649 648 648 647 645 645 645 645 644 644 644 644 644 644 644 643 643 643 643 642 642 641 641 641 641 641 641 639 639 638 638 638 637 636 636 636 635 635 635 635 635 634 634 634 634 634 634 632 632 631 630 630 630 630 629 630 629 629 629 628 628 628 628 627 627 625 627 625 625 625 625 625 624 624 624 624 623 622 622 622 622 622 622 621 622 621 621 621 620 620 620 620 619 619 618 618 618 617 617 617 615 617 615 615 614 613 614 614 614 613 613 612 612 612 612 611 611 610 610 609 609 609 609 609 609 610 609 609 608 607 607 607 607 607 607 606 606 604 603 603 603 601 601 601 600 600 599 600 599 599 598 598 598 598 598 598 599 599 0 0 0 0 0 0 0 0 0 0 0 0 0 0 0 0 0 0 0 0 0 0 0 0 0 0 0 0 0 0 0 0 0 0 0 0 0 0 0 0 0 0 0 0 0 0 0 0 0 0 0 0 0 0 0 0 0 0 0 0 0 3324 3324 3293 3324 3324 3324 3293 3293 3293 3262 3262 3231 3231 3231 3201 3231 3201 3201 3172 3172 3201
    0 0 0 0 0 0 0 0 0 0 0 0 0 0 0 0 0 0 0 0 0 0 0 0 0 0 0 0 0 0 0 0 0 0 0 0 0 0 0 0 0 0 0 0 0 0 0 0 0 0 0 0 0 0 0 0 0 0 0 0 0 0 0 0 0 0 0 0 0 0 0 0 0 0 0 0 0 0 0 0 0 0 0 0 0 0 0 0 0 0 0 0 0 0 0 0 2160 2174 2174 2187 2201 2187 2187 2187 2201 2201 2201 2201 2201 2215 2215 2215 2230 2230 2244 2244 2244 2659 2659 2680 2680 2680 2659 2659 2659 2659 2659 2659 2659 2659 2659 2659 3640 3565 3565 3565 3602 3565 3602 3565 3565 3565 3602 3602 3602 3602 3602 3640 3640 3640 3640 3640 3602 3602 3640 3640 3640 3640 3640 3640 3640 3640 3640 3640 3640 3640 3640 3640 3640 3640 3640 3602 3602 3640 3640 3679 3679 3679 3679 3679 3679 3679 3679 3679 3679 3679 3679 3679 3679 3679 3679 3679 3679 3679 3679 3679 3679 3679 3679 3679 3679 3679 3679 3679 3679 3679 3679 3679 3718 3718 3679 3679 3679 3679 3679 3640 3640 3640 3679 3679 3679 3679 3679 3679 3679 3679 3679 3679 3679 3679 3679 3679 3718 3718 3679 3718 3718 3718 3718 3718 3718 3718 3718 3718 3718 3759 3759 3759 3759 3759 3759 3759 3759 3759 3759 3759 3759 3759 3759 3759 3759 3800 3800 3800 3800 3800 3800 3800 3800 3800 3800 3800 3800 3800 3800 3800 3800 3800 3800 3800 3800 3800 3800 3800 3800 3800 3800 3800 3800 3800 3842 3842 3842 3842 3800 3800 3800 3800 3800 3800 3800 3800 3800 3800 3842 3842 3842 3842 3842 3842 3842 3842 3842 3842 3842 3842 3842 3842 3885 3885 3842 3885 3885 3885 3885 3885 3885 3885 3885 3885 3885 3930 674 673 674 673 673 673 672 672 672 672 672 670 670 670 669 668 668 668 667 667 667 665 665 665 664 664 664 664 663 663 663 661 661 660 659 659 659 659 659 659 658 658 658 656 656 655 655 655 655 655 655 655 654 654 654 653 653 653 653 651 651 651 650 650 650 649 649 649 649 648 648 647 645 645 645 645 645 644 644 644 644 644 644 643 643 643 643 642 642 642 641 641 641 641 641 641 639 638 638 638 637 636 636 635 635 635 635 635 634 634 634 634 634 632 632 631 631 631 630 630 630 629 629 629 629 629 629 629 628 628 628 627 627 625 625 625 625 625 625 625 624 624 624 624 623 622 622 621 621 621 621 621 621 621 621 620 620 619 619 619 619 618 618 618 617 617 617 615 615 615 614 614 613 613 613 614 613 613 613 612 612 612 611 611 611 610 610 609 609 609 609 609 609 609 609 608 607 607 607 607 607 606 606 605 606 605 604 603 601 601 601 601 600 600 599 600 599 598 598 598 598 598 598 598 598 597 0 0 0 0 0 0 0 0 0 0 0 0 0 0 0 0 0 0 0 0 0 0 0 0 0 0 0 0 0 0 0 0 0 0 0 0 0 0 0 0 0 0 0 0 0 0 0 0 0 0 0 0 0 0 0 0 0 0 0 0 0 3324 3324 3324 3324 3324 3324 3293 3293 3293 3262 3262 3262 3231 3231 3201 3201 3172 3172 3172 3172 3172
    0 0 0 0 0 0 0 0 0 0 0 0 0 0 0 0 0 0 0 0 0 0 0 0 0 0 0 0 0 0 0 0 0 0 0 0 0 0 0 0 0 0 0 0 0 0 0 0 0 0 0 0 0 0 0 0 0 0 0 0 0 0 0 0 0 0 0 0 0 0 0 0 0 0 0 0 0 0 0 0 0 0 0 0 0 0 0 0 0 0 0 0 0 0 0 0 2160 2174 2174 2187 2201 2187 2187 2187 2201 2201 2201 2201 2201 2201 2215 2215 2230 2230 2244 2244 2244 2659 2680 2680 2680 2680 2659 2659 2659 2659 2659 2659 2659 2659 2659 2680 3640 3565 3565 3565 3602 3565 3565 3565 3565 3565 3602 3602 3602 3602 3602 3640 3640 3640 3640 3640 3640 3602 3640 3640 3640 3640 3640 3640 3640 3640 3640 3640 3640 3640 3640 3640 3602 3602 3602 3602 3602 3640 3640 3679 3679 3679 3679 3679 3679 3679 3679 3679 3679 3679 3679 3679 3679 3679 3679 3679 3679 3679 3679 3679 3679 3679 3679 3679 3679 3679 3679 3679 3679 3679 3679 3718 3718 3718 3679 3679 3679 3679 3640 3640 3640 3640 3640 3640 3679 3679 3679 3679 3679 3679 3679 3679 3679 3679 3679 3679 3679 3679 3679 3679 3679 3718 3718 3718 3718 3718 3718 3718 3718 3718 3759 3759 3759 3759 3759 3759 3759 3759 3759 3759 3759 3759 3759 3759 3759 3759 3800 3800 3800 3800 3800 3800 3800 3800 3800 3800 3800 3800 3800 3800 3800 3800 3800 3800 3800 3800 3800 3800 3800 3800 3800 3800 3800 3800 3800 3842 3800 3800 3800 3800 3800 3800 3800 3800 3800 3800 3800 3800 3800 3842 3842 3842 3842 3842 3842 3842 3842 3842 3842 3842 3842 3842 3842 3842 3842 3842 3842 3842 3842 3885 3885 3885 3885 3885 3885 3930 674 674 674 673 673 673 672 672 672 672 670 670 670 669 669 668 668 668 667 667 667 665 665 665 665 664 664 664 663 661 661 661 660 660 659 660 659 659 659 659 658 658 658 656 656 655 655 655 655 655 655 655 654 654 654 653 653 653 653 651 651 650 650 650 650 650 649 649 649 649 648 647 647 645 645 645 645 645 645 645 644 644 644 643 643 643 643 642 642 642 641 641 641 641 641 641 639 638 638 638 637 636 636 635 635 635 635 635 634 634 634 634 632 632 632 631 631 630 630 630 630 630 629 629 629 629 629 628 628 628 627 627 625 625 625 625 625 625 625 625 625 624 624 624 623 622 622 621 621 621 621 621 621 621 621 620 620 619 619 618 618 617 617 617 617 617 617 615 615 615 615 614 613 613 613 613 613 613 612 612 612 612 611 611 611 610 609 609 609 609 609 608 608 609 608 607 607 607 606 606 606 605 605 605 605 604 603 601 601 601 601 601 600 600 600 600 599 598 598 598 598 598 598 598 598 596 597 0 0 0 0 0 0 0 0 0 0 0 0 0 0 0 0 0 0 0 0 0 0 0 0 0 0 0 0 0 0 0 0 0 0 0 0 0 0 0 0 0 0 0 0 0 0 0 0 0 0 0 0 0 0 0 0 0 0 0 0 3324 3324 3324 3357 3324 3324 3293 3293 3293 3262 3262 3262 3231 3231 3201 3201 3172 3172 3172 3172 3172
    0 0 0 0 0 0 0 0 0 0 0 0 0 0 0 0 0 0 0 0 0 0 0 0 0 0 0 0 0 0 0 0 0 0 0 0 0 0 0 0 0 0 0 0 0 0 0 0 0 0 0 0 0 0 0 0 0 0 0 0 0 0 0 0 0 0 0 0 0 0 0 0 0 0 0 0 0 0 0 0 0 0 0 0 0 0 0 0 0 0 0 0 0 0 2201 2174 2174 2174 2174 2187 2187 2174 2187 2187 2201 2201 2201 2201 2201 2201 2215 2215 2215 2230 2244 2244 2259 2659 2680 2680 2680 2680 2659 2659 2659 2659 2659 2659 2659 2680 2680 2680 3640 3565 3565 3565 3602 3565 3565 3565 3565 3565 3565 3602 3602 3602 3602 3640 3640 3640 3640 3640 3640 3602 3602 3640 3640 3602 3602 3602 3640 3640 3640 3640 3640 3640 3602 3602 3602 3602 3602 3602 3640 3640 3679 3679 3679 3679 3679 3679 3679 3679 3679 3640 3640 3640 3679 3679 3679 3679 3679 3679 3679 3679 3679 3679 3679 3679 3679 3679 3679 3679 3679 3679 3679 3718 3718 3718 3718 3718 3679 3679 3679 3679 3679 3679 3679 3640 3640 3640 3640 3679 3679 3679 3679 3679 3679 3679 3679 3679 3679 3679 3679 3679 3679 3718 3679 3718 3718 3718 3718 3718 3718 3718 3718 3759 3718 3718 3718 3759 3759 3718 3718 3718 3759 3759 3759 3759 3759 3759 3759 3759 3759 3759 3800 3800 3800 3800 3800 3800 3800 3800 3800 3800 3800 3800 3800 3800 3800 3800 3800 3800 3800 3800 3800 3800 3800 3800 3800 3800 3800 3842 3800 3800 3800 3800 3800 3800 3800 3800 3800 3800 3842 3842 3842 3842 3842 3842 3842 3842 3842 3842 3842 3842 3842 3842 3842 3842 3842 3885 3842 3885 3885 3885 3885 3885 3885 3885 3885 3885 3885 3885 674 674 674 673 673 673 672 672 672 672 670 670 669 669 669 668 667 667 667 667 665 665 665 665 664 664 664 663 663 661 661 661 660 660 659 659 659 659 659 659 658 658 658 656 656 655 655 655 655 655 655 655 654 654 654 654 653 653 653 651 651 650 650 650 650 649 649 649 649 648 648 645 645 645 645 645 645 645 645 645 644 644 644 643 643 643 643 642 642 641 641 641 641 641 639 641 639 638 638 637 636 636 636 635 635 635 635 635 634 634 634 634 632 632 632 630 630 630 630 630 630 629 629 629 629 629 628 628 627 627 627 625 625 625 625 625 625 625 625 625 625 624 624 623 623 622 621 621 621 621 621 621 621 621 621 620 620 619 619 618 618 617 617 617 617 617 617 615 615 615 615 614 614 613 613 613 613 613 612 612 612 612 611 611 611 610 610 610 609 609 609 608 608 608 608 607 607 606 606 606 605 605 605 604 604 604 603 601 601 601 601 600 600 600 599 600 599 598 598 598 598 598 597 598 598 597 0 0 0 0 0 0 0 0 0 0 0 0 0 0 0 0 0 0 0 0 0 0 0 0 0 0 0 0 0 0 0 0 0 0 0 0 0 0 0 0 0 0 0 0 0 0 0 0 0 0 0 0 0 0 0 0 0 0 0 0 0 3390 3357 3390 3390 3357 3324 3293 3293 3293 3293 3262 3262 3262 3231 3231 3231 3172 3172 3172 3172 3201
    0 0 0 0 0 0 0 0 0 0 0 0 0 0 0 0 0 0 0 0 0 0 0 0 0 0 0 0 0 0 0 0 0 0 0 0 0 0 0 0 0 0 0 0 0 0 0 0 0 0 0 0 0 0 0 0 0 0 0 0 0 0 0 0 0 0 0 0 0 0 0 0 0 0 0 0 0 0 0 0 0 0 0 0 0 0 0 0 0 0 0 0 0 2215 2201 2187 2187 2187 2174 2187 2187 2174 2174 2187 2187 2201 2201 2201 2201 2215 2215 2215 2215 2230 2244 2244 2244 2680 2680 2680 2680 2680 2680 2659 2659 2680 2659 2659 2680 2680 2680 3640 3640 3565 3565 3565 3565 3565 3565 3565 3565 3565 3565 3602 3602 3602 3602 3602 3640 3640 3640 3640 3602 3602 3602 3640 3640 3602 3602 3602 3602 3640 3640 3640 3640 3640 3602 3602 3602 3602 3602 3602 3602 3640 3640 3679 3679 3679 3679 3679 3679 3679 3640 3640 3640 3640 3640 3679 3679 3679 3679 3679 3679 3679 3679 3679 3679 3679 3679 3679 3679 3679 3679 3679 3679 3679 3679 3718 3718 3718 3679 3679 3679 3679 3679 3679 3679 3640 3640 3640 3640 3640 3679 3679 3679 3679 3679 3679 3679 3679 3679 3679 3718 3679 3679 3718 3679 3718 3718 3718 3718 3718 3718 3718 3718 3759 3759 3718 3718 3759 3718 3718 3718 3718 3718 3759 3759 3759 3759 3759 3759 3759 3759 3759 3759 3800 3800 3800 3800 3800 3800 3800 3800 3800 3800 3800 3800 3800 3800 3800 3800 3800 3800 3800 3800 3800 3800 3800 3800 3800 3800 3800 3800 3800 3800 3800 3800 3800 3800 3800 3800 3800 3842 3800 3800 3842 3842 3842 3800 3842 3842 3842 3842 3842 3842 3842 3885 3885 3885 3885 3842 3885 3885 3885 3885 3885 3885 3885 3885 3885 3885 3885 676 674 674 674 673 673 673 672 672 672 670 670 669 668 668 667 667 667 667 667 665 665 665 665 665 664 664 664 663 663 661 661 660 660 659 659 659 659 659 658 658 658 656 656 656 655 655 655 655 655 655 655 654 654 654 653 653 654 653 651 651 650 650 650 649 649 649 649 649 648 647 645 645 645 645 645 645 645 645 644 644 644 643 643 643 643 643 642 642 641 641 641 641 641 639 641 639 638 638 637 636 636 635 635 635 635 635 634 634 634 634 634 634 632 632 631 631 630 630 630 630 630 629 629 629 629 628 628 627 627 627 625 625 625 625 625 625 625 625 625 625 624 624 623 623 622 621 621 621 621 621 621 621 621 621 620 619 619 618 618 618 617 617 617 617 617 617 615 615 615 615 614 614 613 613 613 613 612 612 612 612 612 611 611 611 610 610 609 609 608 608 608 608 608 608 607 607 606 606 605 605 605 604 604 604 604 603 601 601 601 601 600 599 600 599 599 599 598 598 598 598 598 598 597 597 596 594 0 0 0 0 0 0 0 0 0 0 0 0 0 0 0 0 0 0 0 0 0 0 0 0 0 0 0 0 0 0 0 0 0 0 0 0 0 0 0 0 0 0 0 0 0 0 0 0 0 0 0 0 0 0 0 0 0 0 0 0 3390 3390 3390 3390 3357 3324 3293 3293 3293 3262 3262 3262 3231 3231 3231 3231 3172 3172 3172 3172 3201
    0 0 0 0 0 0 0 0 0 0 0 0 0 0 0 0 0 0 0 0 0 0 0 0 0 0 0 0 0 0 0 0 0 0 0 0 0 0 0 0 0 0 0 0 0 0 0 0 0 0 0 0 0 0 0 0 0 0 0 0 0 0 0 0 0 0 0 0 0 0 0 0 0 0 0 0 0 0 0 0 0 0 0 0 0 0 0 0 0 0 0 0 0 2215 2201 2187 2187 2187 2187 2187 2187 2174 2187 2187 2201 2201 2201 2201 2201 2201 2215 2201 2215 2215 2230 2244 2244 2701 2701 2701 2680 2680 2680 2659 2680 2680 2680 2659 2680 2680 2680 3602 3602 3565 3565 3565 3565 3565 3565 3565 3565 3565 3565 3565 3602 3602 3602 3602 3640 3640 3640 3640 3602 3602 3602 3602 3602 3602 3602 3602 3640 3640 3640 3640 3640 3640 3602 3602 3602 3602 3602 3602 3640 3640 3679 3679 3679 3679 3679 3679 3640 3640 3640 3640 3640 3640 3640 3679 3679 3679 3679 3679 3679 3679 3679 3679 3679 3679 3679 3679 3679 3679 3679 3679 3679 3679 3679 3679 3679 3718 3679 3679 3679 3679 3679 3679 3640 3640 3640 3640 3640 3640 3679 3679 3679 3679 3679 3679 3679 3679 3679 3679 3718 3679 3679 3679 3679 3679 3718 3679 3679 3679 3718 3718 3718 3759 3718 3718 3718 3759 3759 3759 3759 3759 3759 3759 3759 3718 3759 3759 3759 3759 3759 3759 3759 3759 3800 3759 3800 3759 3759 3759 3800 3800 3800 3800 3800 3800 3800 3800 3800 3800 3800 3800 3800 3800 3800 3800 3800 3800 3800 3800 3800 3800 3800 3800 3800 3800 3800 3800 3800 3800 3800 3800 3842 3842 3842 3842 3842 3842 3842 3842 3842 3842 3885 3885 3885 3885 3885 3885 3842 3885 3842 3842 3842 3842 3842 3885 3885 3885 3885 3930 674 674 674 674 674 674 673 673 672 672 670 670 669 669 668 667 667 667 665 665 665 665 665 665 665 664 664 664 663 661 661 661 660 660 659 659 659 659 659 658 658 658 656 656 656 655 655 655 655 655 655 655 654 654 654 654 653 654 653 651 651 650 650 650 650 649 649 649 648 648 647 645 645 645 645 645 645 645 645 645 644 644 643 643 643 643 643 642 642 641 641 641 639 641 639 639 639 638 638 637 636 636 635 635 635 635 634 634 634 634 634 634 634 632 632 631 631 630 630 630 630 630 629 629 629 629 628 628 627 627 627 627 625 625 625 624 625 625 625 625 625 624 624 623 623 622 621 621 621 621 621 621 621 621 620 620 619 619 618 617 618 617 617 617 617 617 617 615 615 615 615 615 614 613 613 613 613 613 612 612 612 612 611 611 611 610 610 610 609 609 608 608 608 608 608 607 607 607 606 606 605 605 605 604 604 604 603 601 601 601 601 600 599 600 599 599 598 598 598 598 598 598 598 597 597 596 595 0 0 0 0 0 0 0 0 0 0 0 0 0 0 0 0 0 0 0 0 0 0 0 0 0 0 0 0 0 0 0 0 0 0 0 0 0 0 0 0 0 0 0 0 0 0 0 0 0 0 0 0 0 0 0 0 0 0 0 0 3423 3390 3390 3390 3357 3324 3293 3293 3293 3293 3262 3262 3262 3262 3231 3231 3201 3201 3172 3172 3172
    0 0 0 0 0 0 0 0 0 0 0 0 0 0 0 0 0 0 0 0 0 0 0 0 0 0 0 0 0 0 0 0 0 0 0 0 0 0 0 0 0 0 0 0 0 0 0 0 0 0 0 0 0 0 0 0 0 0 0 0 0 0 0 0 0 0 0 0 0 0 0 0 0 0 0 0 0 0 0 0 0 0 0 0 0 0 0 0 0 0 0 0 0 2215 2201 2187 2187 2187 2187 2187 2187 2174 2174 2187 2187 2201 2201 2201 2201 2201 2215 2215 2215 2215 2230 2230 2244 2244 2701 2701 2680 2680 2659 2659 2659 2680 2680 2680 2680 2680 2680 3602 3602 3565 3565 3565 3565 3565 3565 3565 3565 3565 3565 3565 3602 3602 3602 3602 3640 3640 3602 3640 3602 3602 3602 3602 3602 3602 3602 3602 3602 3640 3640 3640 3640 3640 3602 3640 3602 3602 3602 3602 3640 3640 3679 3679 3679 3679 3679 3679 3640 3640 3640 3640 3640 3640 3679 3679 3679 3679 3679 3679 3679 3679 3679 3679 3679 3679 3679 3679 3679 3679 3679 3679 3679 3679 3679 3679 3679 3679 3679 3679 3679 3679 3679 3640 3640 3640 3640 3640 3640 3679 3679 3679 3679 3679 3679 3679 3679 3679 3679 3679 3679 3679 3679 3679 3679 3679 3679 3679 3679 3679 3718 3718 3718 3759 3718 3759 3718 3759 3718 3759 3759 3759 3759 3759 3718 3718 3759 3759 3759 3759 3718 3759 3759 3759 3759 3759 3759 3759 3759 3759 3759 3759 3800 3800 3800 3800 3800 3800 3800 3800 3800 3800 3800 3800 3800 3800 3800 3800 3800 3800 3800 3800 3800 3800 3800 3800 3800 3800 3800 3800 3800 3800 3842 3842 3842 3842 3842 3842 3842 3842 3842 3842 3842 3842 3885 3885 3885 3885 3842 3842 3842 3842 3842 3842 3885 3885 3885 3930 3930 3930 674 674 674 673 674 673 673 673 672 672 670 670 669 669 668 668 667 667 665 665 665 665 665 665 665 664 664 664 663 663 661 661 660 660 659 659 659 659 659 659 658 658 656 656 656 655 655 655 655 655 655 655 654 654 654 654 654 654 653 651 651 650 650 650 650 650 649 649 649 648 647 647 645 645 645 645 645 645 645 644 644 643 643 643 643 643 642 642 642 642 641 641 639 641 639 639 639 638 638 637 636 636 635 635 635 635 635 634 634 634 634 634 632 631 631 631 630 630 630 630 630 630 629 629 629 629 628 628 627 627 627 625 625 625 624 624 624 625 624 624 624 624 624 623 623 622 622 621 621 621 621 621 621 621 620 620 619 619 618 617 618 617 617 617 617 617 617 615 615 615 615 615 614 614 613 613 613 613 612 612 612 612 611 611 611 610 610 610 609 608 608 608 608 608 608 607 607 606 606 606 606 605 605 604 605 604 603 601 601 601 600 600 599 600 600 599 599 598 598 598 598 597 597 597 597 596 595 0 0 0 0 0 0 0 0 0 0 0 0 0 0 0 0 0 0 0 0 0 0 0 0 0 0 0 0 0 0 0 0 0 0 0 0 0 0 0 0 0 0 0 0 0 0 0 0 0 0 0 0 0 0 0 0 0 0 0 0 3390 3390 3390 3390 3390 3324 3293 3293 3293 3262 3262 3262 3262 3262 3231 3231 3201 3231 3172 3172 3172
    0 0 0 0 0 0 0 0 0 0 0 0 0 0 0 0 0 0 0 0 0 0 0 0 0 0 0 0 0 0 0 0 0 0 0 0 0 0 0 0 0 0 0 0 0 0 0 0 0 0 0 0 0 0 0 0 0 0 0 0 0 0 0 0 0 0 0 0 0 0 0 0 0 0 0 0 0 0 0 0 0 0 0 0 0 0 0 0 0 0 0 0 0 0 2187 2174 2174 2174 2174 2187 2187 2174 2174 2187 2187 2201 2201 2201 2201 2201 2201 2201 2201 2215 2215 2215 2230 2230 2701 2680 2680 2659 2659 2659 2659 2659 2659 2680 2680 2680 2680 3602 3602 3602 3565 3565 3565 3565 3565 3565 3565 3565 3565 3565 3602 3602 3602 3602 3602 3602 3602 3602 3602 3565 3565 3602 3565 3602 3602 3565 3602 3640 3640 3640 3602 3640 3602 3602 3602 3602 3602 3602 3640 3640 3679 3679 3679 3679 3640 3640 3602 3602 3602 3602 3640 3640 3640 3679 3679 3679 3679 3679 3679 3679 3679 3679 3679 3679 3679 3679 3679 3679 3679 3679 3679 3679 3679 3679 3679 3679 3640 3679 3679 3640 3640 3640 3640 3640 3640 3640 3640 3679 3640 3679 3679 3679 3679 3679 3679 3679 3679 3679 3679 3679 3679 3679 3679 3679 3718 3679 3679 3679 3679 3718 3718 3718 3718 3718 3718 3759 3718 3718 3759 3718 3759 3759 3718 3718 3718 3759 3718 3718 3718 3759 3759 3759 3800 3800 3800 3800 3800 3759 3800 3800 3800 3800 3800 3800 3800 3800 3800 3800 3800 3800 3800 3800 3800 3800 3800 3800 3800 3800 3800 3800 3800 3800 3800 3800 3800 3800 3800 3800 3800 3800 3800 3842 3842 3842 3842 3842 3842 3842 3842 3842 3842 3885 3885 3885 3885 3885 3842 3842 3842 3842 3842 3842 3842 3885 3885 3885 3930 3930 674 674 674 673 674 673 673 673 672 672 670 670 669 669 669 668 667 667 665 665 665 665 665 665 664 664 664 663 663 661 661 661 660 660 659 659 659 659 659 659 658 658 658 656 656 655 655 655 655 655 655 655 655 654 654 654 654 654 653 651 651 650 650 650 650 649 649 649 648 648 647 645 645 645 645 645 645 645 645 645 644 644 643 643 643 643 643 642 642 642 641 641 641 641 639 641 639 638 638 637 637 636 635 635 635 635 634 634 634 634 634 634 632 631 631 631 630 630 630 630 630 630 629 629 629 629 628 628 627 627 627 625 625 625 624 624 624 625 624 624 624 624 624 623 622 622 622 621 621 621 621 621 621 621 620 620 619 619 618 617 618 617 617 617 617 617 617 615 615 615 615 615 614 613 613 613 613 612 612 612 612 612 611 611 611 610 610 610 609 608 608 608 608 608 607 607 607 606 605 605 605 605 605 604 605 604 603 601 601 601 601 600 600 600 600 599 598 598 598 598 598 597 597 597 597 596 596 0 0 0 0 0 0 0 0 0 0 0 0 0 0 0 0 0 0 0 0 0 0 0 0 0 0 0 0 0 0 0 0 0 0 0 0 0 0 0 0 0 0 0 0 0 0 0 0 0 0 0 0 0 0 0 0 0 0 0 0 3390 3357 3390 3357 3357 3324 3293 3293 3293 3262 3262 3262 3262 3262 3231 3231 3201 3201 3172 3172 3172
    0 0 0 0 0 0 0 0 0 0 0 0 0 0 0 0 0 0 0 0 0 0 0 0 0 0 0 0 0 0 0 0 0 0 0 0 0 0 0 0 0 0 0 0 0 0 0 0 0 0 0 0 0 0 0 0 0 0 0 0 0 0 0 0 0 0 0 0 0 0 0 0 0 0 0 0 0 0 0 0 0 0 0 0 0 0 0 0 0 0 0 0 0 2174 2174 2174 2174 2174 2174 2187 2187 2174 2187 2187 2187 2201 2201 2201 2201 2201 2201 2201 2201 2215 2215 2215 2230 2230 2659 2659 2659 2639 2639 2639 2659 2659 2659 2659 2680 2680 3602 3602 3602 3602 3602 3565 3565 3565 3565 3565 3565 3565 3565 3565 3565 3602 3602 3565 3602 3602 3602 3602 3565 3565 3565 3565 3565 3565 3565 3565 3602 3602 3640 3602 3602 3602 3602 3602 3602 3602 3602 3640 3640 3640 3640 3640 3640 3640 3640 3602 3602 3602 3602 3602 3602 3640 3640 3679 3679 3679 3679 3679 3679 3679 3679 3679 3679 3679 3679 3679 3679 3679 3679 3679 3679 3679 3679 3679 3679 3679 3640 3679 3679 3640 3640 3640 3640 3640 3640 3640 3640 3640 3640 3679 3679 3679 3679 3679 3679 3679 3679 3679 3679 3679 3679 3679 3679 3718 3718 3679 3718 3718 3718 3718 3718 3718 3718 3718 3718 3759 3718 3718 3718 3759 3759 3759 3718 3718 3718 3759 3718 3718 3718 3759 3759 3759 3800 3800 3800 3800 3800 3759 3800 3800 3800 3800 3800 3759 3800 3800 3800 3800 3759 3759 3759 3759 3800 3800 3800 3800 3800 3800 3800 3800 3800 3800 3800 3800 3800 3800 3800 3800 3800 3800 3800 3842 3842 3842 3842 3842 3842 3842 3842 3842 3842 3842 3885 3885 3885 3885 3842 3842 3842 3842 3842 3842 3842 3842 3842 3885 3930 3930 674 674 674 673 673 673 673 673 672 670 670 670 669 669 668 668 667 667 665 665 665 665 665 664 664 664 664 663 661 661 661 660 660 660 659 659 659 659 659 659 659 658 656 656 656 655 655 655 655 655 655 655 655 654 654 654 653 654 653 651 651 650 650 650 650 649 649 648 648 648 647 647 645 645 645 645 645 645 645 645 644 644 643 643 643 643 643 642 642 642 641 641 641 641 639 639 639 638 638 637 637 636 636 635 635 635 634 634 634 634 634 632 631 631 631 630 630 630 630 630 630 629 629 629 629 629 628 628 627 627 627 625 625 625 624 625 624 625 624 624 624 624 624 623 623 623 622 622 621 621 621 621 621 620 620 619 619 619 618 617 618 618 617 617 617 617 617 617 615 615 615 615 614 614 613 613 613 613 612 612 612 612 611 611 611 610 610 610 610 609 608 608 608 608 607 607 606 606 605 605 605 605 605 605 605 604 603 601 601 601 601 600 600 601 600 599 598 598 598 598 598 597 597 597 597 596 595 0 0 0 0 0 0 0 0 0 0 0 0 0 0 0 0 0 0 0 0 0 0 0 0 0 0 0 0 0 0 0 0 0 0 0 0 0 0 0 0 0 0 0 0 0 0 0 0 0 0 0 0 0 0 0 0 0 0 0 0 3357 3324 3357 3357 3357 3324 3293 3293 3293 3262 3262 3262 3231 3231 3231 3231 3201 3201 3172 3172 3172
    0 0 0 0 0 0 0 0 0 0 0 0 0 0 0 0 0 0 0 0 0 0 0 0 0 0 0 0 0 0 0 0 0 0 0 0 0 0 0 0 0 0 0 0 0 0 0 0 0 0 0 0 0 0 0 0 0 0 0 0 0 0 0 0 0 0 0 0 0 0 0 0 0 0 0 0 0 0 0 0 0 0 0 0 0 0 0 0 0 0 0 0 0 2174 2174 2160 2160 2174 2174 2174 2187 2174 2174 2187 2187 2187 2201 2201 2201 2201 2201 2201 2201 2215 2215 2215 2215 2230 2230 2639 2639 2639 2619 2639 2639 2639 2639 2659 2680 2680 0 3602 3602 3602 3602 3602 3602 3565 3565 3565 3565 3565 3565 3565 3565 3565 3565 3565 3565 3565 3565 3602 3565 3565 3565 3565 3565 3565 3565 3565 3565 3602 3602 3602 3602 3602 3602 3602 3602 3602 3602 3640 3640 3640 3640 3640 3640 3640 3602 3602 3602 3602 3602 3602 3602 3640 3640 3679 3679 3679 3679 3679 3679 3679 3679 3679 3679 3679 3679 3679 3679 3679 3679 3679 3679 3679 3679 3679 3679 3679 3640 3640 3679 3640 3640 3640 3640 3640 3640 3640 3640 3640 3640 3679 3679 3679 3679 3679 3679 3679 3679 3679 3679 3679 3679 3679 3679 3718 3718 3679 3718 3679 3679 3679 3718 3718 3679 3718 3718 3718 3718 3718 3718 3718 3718 3718 3718 3718 3759 3759 3759 3718 3759 3759 3759 3759 3800 3759 3800 3800 3800 3759 3800 3800 3759 3800 3800 3800 3800 3800 3800 3800 3800 3759 3759 3759 3759 3800 3800 3800 3800 3800 3800 3800 3800 3800 3800 3800 3800 3800 3800 3800 3800 3800 3800 3842 3842 3842 3842 3842 3842 3842 3842 3842 3842 3885 3885 3885 3885 3885 3842 3842 3842 3800 3842 3842 3842 3842 3885 3930 3930 3930 674 674 674 673 674 674 673 673 672 670 670 670 669 669 668 668 667 667 665 665 665 665 665 664 664 664 664 663 661 661 661 660 660 660 659 660 659 659 659 659 658 658 656 656 655 655 655 655 655 655 655 655 655 654 654 653 653 654 653 651 651 650 650 650 649 649 649 648 648 648 647 645 645 645 645 645 645 645 645 645 644 644 643 643 643 643 643 642 642 642 641 641 641 641 639 639 639 638 638 637 637 636 636 635 635 634 634 634 634 634 634 632 632 631 631 630 630 630 630 630 630 629 629 629 629 629 628 628 627 627 627 625 625 625 625 625 625 625 624 624 624 624 623 622 623 622 622 622 621 621 621 621 621 621 620 620 620 619 618 617 617 618 617 617 617 617 617 617 615 615 615 615 614 614 613 613 613 613 612 612 612 612 611 611 610 610 610 610 609 609 608 608 608 608 607 607 606 606 605 606 606 605 605 605 605 604 603 601 601 601 601 601 601 601 600 599 598 598 598 598 597 597 597 597 597 597 595 0 0 0 0 0 0 0 0 0 0 0 0 0 0 0 0 0 0 0 0 0 0 0 0 0 0 0 0 0 0 0 0 0 0 0 0 0 0 0 0 0 0 0 0 0 0 0 0 0 0 0 0 0 0 0 0 0 0 0 0 3357 3324 3357 3357 3357 3324 3324 3293 3293 3262 3262 3231 3231 3231 3231 3231 3201 3201 3172 3172 3172
    0 0 0 0 0 0 0 0 0 0 0 0 0 0 0 0 0 0 0 0 0 0 0 0 0 0 0 0 0 0 0 0 0 0 0 0 0 0 0 0 0 0 0 0 0 0 0 0 0 0 0 0 0 0 0 0 0 0 0 0 0 0 0 0 0 0 0 0 0 0 0 0 0 0 0 0 0 0 0 0 0 0 0 0 0 0 0 0 0 0 0 0 0 2160 2174 2174 2160 2174 2174 2174 2187 2174 2174 2187 2187 2187 2201 2201 2201 2201 2215 2201 2201 2215 2215 2215 2215 2215 2215 2619 2619 2619 2599 2619 2619 2619 2619 2659 2659 2659 0 3602 3602 3602 3565 3602 3602 3565 3565 3565 3565 3565 3565 3565 3565 3565 3565 3565 3565 3565 3565 3565 3565 3565 3565 3565 3565 3565 3565 3565 3565 3602 3602 3602 3602 3602 3602 3602 3602 3602 3602 3640 3640 3640 3640 3640 3602 3602 3602 3602 3602 3602 3602 3640 3640 3640 3679 3679 3679 3679 3679 3679 3679 3679 3679 3679 3679 3679 3679 3679 3679 3679 3640 3640 3640 3679 3679 3679 3679 3679 3640 3640 3679 3640 3640 3640 3640 3679 3679 3679 3679 3679 3679 3679 3679 3679 3679 3679 3640 3679 3679 3679 3679 3679 3679 3679 3679 3679 3718 3679 3679 3679 3679 3679 3679 3679 3679 3679 3679 3718 3718 3718 3718 3759 3759 3759 3718 3718 3759 3759 3759 3759 3759 3759 3759 3759 3800 3800 3800 3800 3800 3759 3800 3759 3759 3800 3800 3759 3759 3800 3800 3800 3800 3759 3759 3759 3800 3800 3800 3800 3800 3800 3800 3800 3800 3800 3800 3800 3800 3800 3800 3800 3800 3800 3800 3842 3842 3842 3842 3842 3885 3885 3885 3885 3885 3885 3885 3885 3885 3885 3842 3842 3842 3842 3842 3842 3842 3842 3885 3885 3930 674 674 674 674 673 674 673 673 673 672 670 670 670 669 669 668 668 667 665 665 665 664 664 664 664 664 664 664 663 663 661 661 661 660 660 659 659 659 659 659 659 658 658 656 656 655 655 655 655 654 654 655 655 654 654 654 653 653 653 651 651 650 650 650 650 649 649 649 648 648 647 647 645 645 645 645 645 645 645 645 645 644 644 644 644 643 643 643 642 642 642 641 641 641 641 639 639 639 638 638 637 637 636 636 635 635 634 634 634 634 634 634 632 632 631 631 630 630 630 630 630 630 630 629 629 629 629 628 628 627 627 627 625 625 625 625 625 625 625 624 624 624 623 623 622 622 622 622 622 621 621 621 621 621 620 620 620 620 619 619 617 617 618 618 617 617 617 617 615 615 615 615 615 614 614 613 613 613 613 612 612 612 611 611 611 610 610 610 609 609 608 608 608 608 608 607 607 607 607 606 606 606 605 605 605 605 604 603 601 601 601 601 601 600 600 600 599 598 598 598 598 597 597 597 597 597 597 0 0 0 0 0 0 0 0 0 0 0 0 0 0 0 0 0 0 0 0 0 0 0 0 0 0 0 0 0 0 0 0 0 0 0 0 0 0 0 0 0 0 0 0 0 0 0 0 0 0 0 0 0 0 0 0 0 0 0 0 3293 3293 3293 3324 3324 3324 3324 3324 3293 3293 3293 3262 3262 3262 3262 3231 3231 3201 3201 3172 3172 3143
    0 0 0 0 0 0 0 0 0 0 0 0 0 0 0 0 0 0 0 0 0 0 0 0 0 0 0 0 0 0 0 0 0 0 0 0 0 0 0 0 0 0 0 0 0 0 0 0 0 0 0 0 0 0 0 0 0 0 0 0 0 0 0 0 0 0 0 0 0 0 0 0 0 0 0 0 0 0 0 0 0 0 0 0 0 0 0 0 0 0 0 0 0 2160 2160 2160 2160 2160 2174 2174 2187 2174 2174 2187 2187 2187 2201 2201 2201 2201 2201 2201 2201 2215 2215 2215 2215 2215 2215 2599 2599 2619 2599 2599 2619 2619 2619 2639 2639 2619 0 3602 3602 3640 3602 3602 3565 3565 3565 3565 3565 3565 3565 3565 3565 3565 3565 3565 3565 3565 3565 3565 3565 3565 3565 3565 3565 3565 3565 3565 3565 3602 3602 3602 3602 3602 3640 3640 3640 3640 3640 3640 3640 3640 3602 3602 3602 3602 3602 3602 3602 3602 3602 3640 3640 3640 3679 3679 3679 3679 3679 3679 3679 3679 3679 3679 3679 3679 3679 3679 3679 3679 3640 3640 3640 3640 3640 3679 3679 3679 3640 3640 3640 3640 3640 3640 3640 3640 3640 3640 3640 3679 3679 3679 3679 3679 3679 3679 3640 3679 3679 3679 3679 3679 3679 3679 3679 3679 3679 3679 3679 3679 3679 3679 3679 3679 3679 3679 3679 3718 3679 1069 1069 1073 1073 3759 3718 3718 3718 3759 3759 3718 3759 3759 3759 3759 3800 3759 3759 3800 3759 3759 3759 3759 3759 3800 3759 1073 3759 3759 3759 3800 3759 3759 3759 3759 3759 3800 3800 3759 3759 3800 3800 3800 3800 3800 3800 3800 3800 3800 3800 3800 3800 3800 3800 3842 3842 3842 3842 3842 3885 3885 3885 3885 3885 3885 3885 3885 3885 3842 3800 3800 3800 3800 3800 3800 3800 3842 3885 3885 3930 3930 673 673 673 672 673 673 672 672 672 670 670 669 669 668 668 667 667 667 665 665 664 664 664 664 664 664 664 664 664 663 663 661 660 660 659 659 659 659 658 659 658 658 656 655 655 655 655 655 654 654 655 655 654 654 653 651 651 653 651 650 650 650 650 650 649 649 649 648 647 647 647 647 645 645 645 645 645 645 645 645 644 644 644 643 643 643 643 642 642 642 641 641 641 641 641 639 639 638 638 637 637 636 636 635 635 634 634 634 634 634 632 632 631 631 631 630 630 630 630 630 630 630 629 629 629 629 628 628 628 627 627 625 625 625 625 624 624 624 624 624 624 623 623 622 622 623 622 622 622 621 621 621 620 620 620 620 620 619 619 618 619 618 618 617 617 617 617 615 615 615 615 615 614 614 613 613 613 613 612 612 611 611 611 610 610 609 609 609 608 608 608 608 607 607 607 607 607 607 606 606 606 605 605 605 605 604 603 601 601 601 601 600 600 600 600 599 598 598 598 598 598 597 597 597 597 597 0 0 0 0 0 0 0 0 0 0 0 0 0 0 0 0 0 0 0 0 0 0 0 0 0 0 0 0 0 0 0 0 0 0 0 0 0 0 0 0 0 0 0 0 0 0 0 0 0 0 0 0 0 0 0 0 0 0 0 3293 3293 3293 3293 3324 3324 3324 3324 3293 3293 3293 3262 3262 3262 3231 3231 3201 3201 3201 3172 3172 3143 3115
    0 0 0 0 0 0 0 0 0 0 0 0 0 0 0 0 0 0 0 0 0 0 0 0 0 0 0 0 0 0 0 0 0 0 0 0 0 0 0 0 0 0 0 0 0 0 0 0 0 0 0 0 0 0 0 0 0 0 0 0 0 0 0 0 0 0 0 0 0 0 0 0 0 0 0 0 0 0 0 0 0 0 0 0 0 0 0 0 0 0 0 0 0 2147 2147 2160 2147 2160 2160 2174 2174 2174 2174 2187 2187 2187 2201 2201 2201 2201 2201 2201 2201 2215 2215 2215 2215 2215 2215 2215 2599 2599 2599 2599 2599 2599 2599 2619 2619 2619 3602 3602 3602 3602 3565 3565 3565 3565 3565 3565 3565 3565 3565 3565 3565 3565 3565 3565 3565 3565 3565 3565 3565 3565 3565 3528 3528 3565 3565 3565 3565 3565 3565 3602 3602 3602 3602 3640 3640 3640 3640 3640 3640 3640 3640 3602 3602 3602 3602 3602 3602 3602 3640 3640 3679 3640 3679 3679 3679 3679 3679 3679 3679 3679 3679 3679 3679 3679 3679 3679 3640 3640 3640 3640 3640 3640 3640 3679 3679 3679 3640 3640 3640 3640 3640 3640 3640 3640 3640 3640 3679 3679 3679 3679 3679 3679 3679 3679 3640 3640 3679 3679 3679 3679 3679 3679 3679 3679 3679 3679 3679 3679 3679 3679 3679 3679 3679 1073 1073 1073 1073 1069 1069 1073 1073 1073 1073 3718 3718 3718 3718 3718 3718 3759 3718 3759 3759 3759 3759 3759 3759 3759 3759 3759 1069 1069 1069 1069 1069 3759 3759 3800 3759 3759 3759 3759 3800 3800 3800 3800 3800 3800 3800 3800 3800 3800 3800 3800 3800 3800 3800 3800 3800 3800 3800 3842 3842 3842 3842 3842 3842 3842 3842 3842 3842 3885 3885 3885 3885 3842 3800 3800 3800 3800 3800 3800 3842 3842 3885 3930 3930 673 673 673 673 672 673 672 672 672 670 670 670 669 669 669 668 668 667 667 667 665 665 665 665 664 664 664 664 664 664 663 663 663 660 660 660 660 659 659 658 658 658 656 656 655 655 655 655 655 655 654 655 655 655 654 653 651 651 653 651 650 650 650 650 649 649 649 649 648 647 647 647 647 645 645 645 645 645 645 645 645 644 644 644 643 643 643 643 642 642 642 642 641 641 641 641 639 639 638 638 637 637 636 636 635 635 634 634 634 634 632 632 632 631 630 630 630 630 630 630 630 629 630 629 629 629 629 628 628 627 627 627 625 625 625 625 625 624 624 624 624 624 623 623 622 622 622 622 621 621 621 621 621 620 620 620 620 619 619 619 618 618 618 618 618 617 615 617 615 615 615 615 615 614 614 613 613 613 613 612 612 611 611 611 611 610 609 609 608 608 608 608 607 607 607 607 607 606 607 606 606 606 606 605 605 605 604 603 603 603 601 601 601 600 600 600 599 598 598 598 598 598 597 597 597 597 597 597 0 0 0 0 0 0 0 0 0 0 0 0 0 0 0 0 0 0 0 0 0 0 0 0 0 0 0 0 0 0 0 0 0 0 0 0 0 0 0 0 0 0 0 0 0 0 0 0 0 0 0 0 0 0 0 0 0 0 3293 3293 3293 3293 3293 3324 3293 3293 3293 3293 3293 3262 3262 3262 3231 3201 3201 3201 3172 3172 3143 3143 3143
    0 0 0 0 0 0 0 0 0 0 0 0 0 0 0 0 0 0 0 0 0 0 0 0 0 0 0 0 0 0 0 0 0 0 0 0 0 0 0 0 0 0 0 0 0 0 0 0 0 0 0 0 0 0 0 0 0 0 0 0 0 0 0 0 0 0 0 0 0 0 0 0 0 0 0 0 0 0 0 0 0 0 0 0 0 0 0 0 0 0 0 0 0 2147 2147 2147 2147 2147 2160 2160 2174 2174 2174 2174 2187 2187 2187 2201 2201 2201 2201 2201 2201 2215 2215 2215 2215 2215 2215 2599 2599 2599 2599 2599 2599 2599 2599 2619 2619 2619 3602 3602 3602 3602 3565 3602 3565 3565 3565 3565 3565 3565 3565 3565 3565 3565 3565 3565 3565 3565 3565 3565 3565 3565 3565 3528 3528 3528 3528 3565 3565 3565 3565 3565 3565 3602 3640 3640 3640 3640 3640 3640 3640 3640 3640 3602 3602 3602 3602 3602 3602 3602 3602 3640 3640 3640 3679 3679 3679 3679 3679 3679 3679 3679 3679 3679 3679 3679 3679 3640 3640 3640 3640 3640 3640 3640 3640 3640 3679 3679 3640 3640 3640 3640 3640 3640 3640 3640 3640 3640 3679 3679 3679 3679 3679 3679 3679 3679 3640 3679 3679 3679 3679 3679 3679 3679 3679 3679 3679 3640 3679 3679 3640 3640 1076 1073 1073 1069 1073 1073 1073 1069 1069 1073 1073 1073 1073 1073 3718 3718 3718 3679 3718 3718 3718 3718 3759 3759 3759 3759 3759 3759 3759 1066 1066 1066 1066 1069 1069 1069 3759 3759 3759 3718 3759 3759 3759 3759 3800 3800 3800 3800 3800 3800 3800 3800 3800 3800 3800 3800 3800 3800 3800 3800 3800 3842 3842 3842 3842 3842 3842 3842 3842 3842 3842 3885 3885 3885 3885 3842 3800 3800 3800 3800 3800 3842 3842 3842 3885 3930 3930 3975 672 673 672 672 672 672 670 670 670 670 669 669 669 668 668 668 667 667 667 665 665 665 665 664 664 664 664 664 664 663 663 663 660 660 660 660 659 659 658 658 658 656 656 656 655 655 655 655 654 654 655 655 654 654 653 651 651 653 651 650 650 650 650 649 649 649 649 648 647 647 647 647 647 645 645 645 645 645 645 644 644 644 644 643 644 643 643 643 642 642 642 642 641 641 641 639 639 638 637 637 636 636 635 635 635 634 634 634 634 634 632 632 631 630 630 630 630 629 630 629 629 629 629 629 629 629 628 628 627 627 625 625 625 625 625 625 624 624 624 624 623 623 623 622 622 622 622 622 621 621 621 621 620 620 620 619 619 619 618 618 618 618 617 618 617 617 617 615 615 615 615 615 614 614 613 613 613 613 612 612 611 611 611 611 610 610 609 609 608 608 608 608 607 607 607 607 606 606 605 605 605 605 605 604 604 604 603 603 601 601 601 600 600 600 599 598 598 598 598 598 598 597 597 597 597 597 597 0 0 0 0 0 0 0 0 0 0 0 0 0 0 0 0 0 0 0 0 0 0 0 0 0 0 0 0 0 0 0 0 0 0 0 0 0 0 0 0 0 0 0 0 0 0 0 0 0 0 0 0 0 0 0 0 0 0 3293 3293 3293 3293 3293 3293 3293 3293 3293 3293 3293 3293 3262 3262 3231 3201 3201 3201 3172 3172 3172 3143 3143
    0 0 0 0 0 0 0 0 0 0 0 0 0 0 0 0 0 0 0 0 0 0 0 0 0 0 0 0 0 0 0 0 0 0 0 0 0 0 0 0 0 0 0 0 0 0 0 0 0 0 0 0 0 0 0 0 0 0 0 0 0 0 0 0 0 0 0 0 0 0 0 0 0 0 0 0 0 0 0 0 0 0 0 0 0 0 0 0 0 0 0 0 2147 2147 2147 2147 2147 2147 2160 2160 2174 2174 2174 2187 2187 2187 2201 2201 2201 2201 2201 2201 2201 2201 2215 2201 2201 2201 2201 2599 2599 2599 2599 2599 2599 2599 2599 2619 2619 2619 3602 3602 3602 3602 3565 3565 3565 3565 3565 3565 3565 3565 3565 3565 3565 3565 3565 3565 3565 3565 3565 3565 3602 3565 3565 3528 3528 3528 3565 3565 3565 3565 3565 3565 3565 3602 3640 3640 3640 3640 3640 3640 3640 3640 3602 3565 3565 3602 3602 3602 3602 3602 3602 3640 3640 3640 3679 3679 3679 3679 3679 3679 3679 3679 3679 3679 3679 3679 3679 3640 3640 3640 3640 3640 3640 3640 3640 3640 3640 3679 3640 3640 3640 3640 3640 3640 3640 3640 3640 3640 3679 3679 3679 3679 3679 3679 3679 3679 3640 3679 3679 3679 3718 3718 3759 3718 3759 3800 3800 1079 1079 1079 1076 1076 1073 1073 1069 1069 1069 1069 1069 1069 1069 1073 1073 1073 1073 1069 1069 3640 3640 3679 0 0 3679 3718 3759 3759 3759 0 0 0 1066 0 1066 1066 1066 1066 1066 1069 1069 1073 0 0 0 0 3759 0 3800 3759 3759 3759 3800 3800 3800 3800 3800 3759 3800 3800 3800 3800 3800 3800 3800 3800 3842 3842 3842 3842 3842 3842 3842 3842 3842 3842 3842 3842 3885 3842 3800 3800 3800 3800 3800 3842 3842 3842 3885 3885 3930 3975 673 673 673 672 672 672 670 670 670 670 669 669 669 668 668 667 667 667 665 665 665 664 665 664 664 664 664 664 664 663 663 661 660 660 659 660 659 659 658 658 656 656 655 655 655 655 655 655 654 654 654 654 654 653 651 651 653 653 651 650 650 650 649 649 649 649 649 648 648 647 647 647 645 645 645 645 645 645 645 644 644 644 644 643 644 643 643 642 642 642 641 642 641 641 641 639 639 638 637 636 636 636 636 635 634 634 634 634 634 632 632 631 631 630 630 630 629 629 629 629 629 629 629 629 629 629 628 627 627 627 627 625 625 625 625 625 624 624 624 624 623 623 623 622 622 622 622 622 621 621 621 621 620 620 620 619 619 618 618 618 618 617 617 617 617 617 615 615 615 615 615 615 614 614 614 613 613 613 612 611 611 611 611 611 610 610 609 609 608 608 608 608 607 607 607 606 606 606 605 605 605 605 604 604 604 604 603 601 601 601 600 600 599 599 599 598 598 598 598 598 597 597 597 597 597 597 597 0 0 0 0 0 0 0 0 0 0 0 0 0 0 0 0 0 0 0 0 0 0 0 0 0 0 0 0 0 0 0 0 0 0 0 0 0 0 0 0 0 0 0 0 0 0 0 0 0 0 0 0 0 0 0 0 0 0 3293 3262 3262 3262 3293 3293 3262 3262 3293 3293 3293 3293 3262 3262 3231 3201 3201 3172 3172 3172 3172 3143 3143
    0 0 0 0 0 0 0 0 0 0 0 0 0 0 0 0 0 0 0 0 0 0 0 0 0 0 0 0 0 0 0 0 0 0 0 0 0 0 0 0 0 0 0 0 0 0 0 0 0 0 0 0 0 0 0 0 0 0 0 0 0 0 0 0 0 0 0 0 0 0 0 0 0 0 0 0 0 0 0 0 0 0 0 0 0 0 0 0 0 0 0 0 2147 2147 2147 2147 2147 2147 2160 2160 2160 2174 2174 2174 2187 2187 2187 2187 2187 2201 2201 2201 2201 2201 2201 2201 2201 2201 2201 2619 2619 2599 2599 2599 2599 2599 2599 2619 2619 2619 2639 3602 3602 3602 3565 3565 3565 3565 3565 3565 3565 3565 3565 3565 3565 3565 3565 3565 3565 3565 3565 3565 3602 3565 3565 3565 3528 3565 3565 3565 3565 3565 3565 3565 3602 3602 3640 3640 3640 3640 3602 3602 3602 3602 3602 3565 3602 3602 3602 3602 3602 3602 3602 3640 3640 3679 3679 3679 3679 3679 3679 3640 3640 3679 3679 3679 3679 3679 3640 3640 3640 3640 3640 3640 3640 3640 3640 3640 3640 3679 3640 3640 3640 3640 3640 3640 3640 3640 3640 3679 3679 3679 3679 3679 3679 3679 3679 3679 3640 3640 3679 3679 3718 3679 3759 1083 1083 1083 1073 1073 1076 1076 1073 1073 1073 1069 1066 1066 1069 1069 1069 1069 1069 1069 1069 1073 1066 1066 1053 0 0 0 0 0 0 0 0 0 0 0 0 0 0 1063 1066 1066 1063 1063 1060 1063 1069 1073 0 0 0 0 0 0 0 0 0 3759 3759 3759 3759 3759 3759 3759 3800 3800 3800 3800 3800 3800 3800 3842 3842 3842 3842 3842 3842 3842 3842 3842 3842 3842 3842 3885 3885 3842 3800 3842 3800 3800 3842 3842 3842 3842 3885 3885 3930 674 673 673 673 673 672 672 670 670 670 669 669 669 668 668 667 667 667 665 665 665 665 664 665 664 664 664 664 664 664 663 663 663 661 660 660 660 659 658 658 658 656 656 655 655 655 655 655 654 654 653 654 654 653 653 651 651 651 653 651 650 650 650 649 649 649 649 649 648 648 647 647 647 645 645 645 645 645 645 645 644 644 644 644 643 644 643 643 642 642 641 641 641 641 641 639 639 639 637 637 636 636 636 635 635 634 634 632 634 632 632 632 631 630 630 630 630 629 629 629 629 629 629 629 629 629 628 628 627 627 627 625 625 625 625 625 625 624 624 624 624 624 623 623 623 622 623 622 622 621 621 621 620 620 620 619 619 618 619 618 618 618 617 617 617 617 615 615 615 615 614 614 614 614 614 613 613 613 613 612 611 611 611 610 610 609 610 609 609 608 608 608 608 607 607 607 606 606 606 605 605 605 604 604 604 604 604 601 601 601 601 600 600 599 599 598 598 598 598 598 597 597 597 597 597 597 597 597 0 0 0 0 0 0 0 0 0 0 0 0 0 0 0 0 0 0 0 0 0 0 0 0 0 0 0 0 0 0 0 0 0 0 0 0 0 0 0 0 0 0 0 0 0 0 0 0 0 0 0 0 0 0 0 0 0 0 3293 3262 3293 3262 3293 3293 3262 3293 3293 3293 3293 3293 3262 3262 3231 3231 3201 3201 3172 3172 3172 3172 3172
    0 0 0 0 0 0 0 0 0 0 0 0 0 0 0 0 0 0 0 0 0 0 0 0 0 0 0 0 0 0 0 0 0 0 0 0 0 0 0 0 0 0 0 0 0 0 0 0 0 0 0 0 0 0 0 0 0 0 0 0 0 0 0 0 0 0 0 0 0 0 0 0 0 0 0 0 0 0 0 0 0 0 0 0 0 0 0 0 0 0 0 0 2147 2147 2147 2147 2147 2147 2160 2160 2160 2160 2174 2174 2187 2187 2187 2187 2187 2187 2187 2201 2201 2201 2201 2201 2201 2201 2201 2619 2619 2599 2599 2599 2599 2599 2599 2599 2619 2639 2639 3565 3565 3565 3565 3565 3565 3565 3565 3565 3565 3565 3565 3565 3565 3565 3565 3565 3565 3565 3565 3565 3602 3565 3565 3565 3565 3565 3565 3565 3565 3565 3565 3565 3602 3602 3640 3640 3602 3602 3602 3602 3602 3602 3602 3602 3602 3602 3602 3602 3602 3602 3602 3640 3640 3640 3679 3640 3640 3679 3640 3640 3640 3640 3640 3679 3679 3679 3679 3679 3640 3602 3640 3640 3640 3640 3640 3640 3679 3679 3640 3640 3640 3640 3640 3640 3640 3679 3679 3679 3679 3679 3679 3679 3679 3679 3679 3679 3640 3679 3679 3679 3718 3718 1083 1079 1079 1076 1073 1073 1066 1069 1069 1069 1069 1066 1063 1066 1066 1066 1066 1066 1066 1066 1069 1069 1063 1053 1053 0 0 0 0 0 0 0 0 0 0 0 0 0 0 1063 1063 1063 1063 1063 1063 0 0 0 0 0 0 0 0 0 0 0 0 0 0 0 0 0 0 0 3759 3800 3800 3800 3800 3800 3800 3800 3842 3842 3842 3842 3842 3842 3842 3842 3842 3842 3842 3842 3842 3842 3800 3800 3800 3800 3842 3842 3842 3842 3885 3885 3930 674 673 673 672 672 672 672 670 670 670 669 669 669 668 668 668 667 667 665 665 665 665 664 664 664 664 664 664 664 663 663 663 663 661 660 660 660 659 658 656 656 656 656 655 655 655 655 655 654 654 653 653 654 653 651 651 651 651 653 650 650 650 650 649 649 649 649 649 648 648 647 647 647 645 645 645 645 645 645 644 644 644 644 644 644 644 643 643 642 641 641 641 641 639 639 639 639 638 636 636 635 635 636 635 635 634 634 634 634 634 634 632 631 631 630 630 630 630 629 630 629 629 629 629 629 629 628 628 627 627 627 625 625 625 625 624 624 624 624 624 623 623 622 623 622 622 622 621 621 621 621 620 620 620 619 619 619 618 618 618 618 618 618 617 617 617 615 615 614 615 614 614 614 614 614 613 613 613 613 612 611 611 611 610 610 609 610 609 609 608 608 608 608 607 607 607 606 605 606 605 605 604 604 604 604 604 604 601 601 601 601 600 599 598 598 598 598 598 598 598 597 598 597 597 597 597 597 597 597 0 0 0 0 0 0 0 0 0 0 0 0 0 0 0 0 0 0 0 0 0 0 0 0 0 0 0 0 0 0 0 0 0 0 0 0 0 0 0 0 0 0 0 0 0 0 0 0 0 0 0 0 0 0 0 0 0 3293 3293 3293 3262 3293 3293 3262 3293 3293 3293 3293 3293 3293 3262 3262 3231 3231 3231 3201 3172 3172 3172 3172
    0 0 0 0 0 0 0 0 0 0 0 0 0 0 0 0 0 0 0 0 0 0 0 0 0 0 0 0 0 0 0 0 0 0 0 0 0 0 0 0 0 0 0 0 0 0 0 0 0 0 0 0 0 0 0 0 0 0 0 0 0 0 0 0 0 0 0 0 0 0 0 0 0 0 0 0 0 0 0 0 0 0 0 0 0 0 0 0 0 0 0 0 2147 2147 2147 2147 2147 2147 2160 2160 2160 2160 2174 2174 2187 2187 2187 2187 2187 2187 2187 2187 2187 2201 2201 2201 2201 2201 2201 2619 2619 2619 2599 2599 2599 2619 2599 2619 2619 2659 2659 3565 3565 3565 3565 3565 3565 3565 3565 3565 3565 3565 3565 3565 3565 3565 3565 3565 3565 3565 3565 3565 3565 3565 3565 3565 3565 3565 3565 3565 3565 3565 3565 3565 3565 3602 3602 3602 3602 3602 3602 3565 3565 3565 3602 3602 3602 3602 3602 3602 3602 3602 3602 3602 3640 3679 3679 3679 3640 3640 3640 3640 3640 3640 3640 3640 3640 3640 3640 3640 3640 3602 3602 3640 3640 3640 3640 3640 3640 3679 3640 3640 3640 3640 3640 3640 3640 3640 3640 3640 3640 3640 3679 3679 3679 3640 3679 3679 3640 3679 3679 3718 1076 1076 1076 1073 1073 1069 1066 1066 1063 1063 1069 1066 1069 1066 1063 1063 1063 1063 1063 1063 1060 1060 1063 1056 1053 1050 1050 1050 0 0 0 0 0 0 0 0 0 0 0 1063 1063 0 1063 1063 1063 1063 1083 0 0 0 0 0 0 0 0 0 0 0 0 0 0 0 0 0 0 0 0 0 0 3842 3842 3842 3842 3842 3842 3842 3842 3842 3842 3842 3842 3842 3842 3842 3842 3842 3842 3842 3800 3800 3800 3800 3800 3842 3800 3800 3842 3842 3930 673 672 672 672 672 672 672 670 670 669 669 669 668 668 667 667 667 665 665 665 665 664 664 664 664 664 664 664 663 663 663 661 661 661 660 660 659 659 659 658 658 656 656 655 655 655 655 655 654 654 653 653 653 653 651 651 651 651 651 650 650 650 650 649 649 649 649 648 648 648 647 648 648 647 645 645 645 644 644 644 644 644 644 644 643 644 643 642 641 641 641 641 641 639 639 639 639 638 635 635 635 635 635 635 635 634 634 634 634 634 634 632 632 631 630 630 630 630 630 630 629 629 629 629 629 629 628 628 627 627 627 625 625 624 624 624 624 624 623 623 623 622 622 622 622 622 622 621 621 621 621 620 620 620 619 619 619 619 618 618 618 619 618 618 617 617 615 615 614 614 614 614 614 614 613 613 613 612 612 612 611 611 611 610 610 610 610 609 609 608 608 608 608 607 607 607 606 605 605 605 605 604 604 604 604 604 604 601 601 601 601 599 599 598 598 598 598 598 598 598 598 597 597 597 597 597 597 596 0 0 0 0 0 0 0 0 0 0 0 0 0 0 0 0 0 0 0 0 0 0 0 0 0 0 0 0 0 0 0 0 0 0 0 0 0 0 0 0 0 0 0 0 0 0 0 0 0 0 0 0 0 0 0 0 0 0 3324 3293 3293 3293 3293 3293 3293 3293 3293 3293 3293 3293 3262 3262 3231 3231 3201 3201 3201 3172 3172 3172 3172
    0 0 0 0 0 0 0 0 0 0 0 0 0 0 0 0 0 0 0 0 0 0 0 0 0 0 0 0 0 0 0 0 0 0 0 0 0 0 0 0 0 0 0 0 0 0 0 0 0 0 0 0 0 0 0 0 0 0 0 0 0 0 0 0 0 0 0 0 0 0 0 0 0 0 0 0 0 0 0 0 0 0 0 0 0 0 0 0 0 0 0 0 2147 2147 2147 2147 2147 2147 2147 2160 2160 2160 2174 2174 2187 2187 2187 2187 2187 2187 2187 2187 2187 2187 2201 2201 2201 2201 2201 2639 2639 2619 2619 2619 2619 2619 2599 2619 2619 2680 3565 3565 3565 3565 3565 3565 3565 3565 3565 3565 3565 3565 3565 3565 3565 3565 3565 3565 3565 3565 3565 3565 3565 3565 3565 3565 3565 3565 3565 3565 3565 3565 3565 3565 3565 3565 3602 3602 3602 3565 3602 3565 3565 3565 3602 3565 3565 3565 3602 3602 3602 3602 3602 3602 3640 3640 3640 3640 3640 3640 3640 3640 3640 3640 3640 3640 3640 3640 3640 3640 3640 3602 3602 3640 3640 3602 3602 3640 3679 3679 3640 3640 3640 3640 3640 3640 3640 3640 3640 3640 3640 3640 3679 3640 3679 3640 3640 3679 3640 3679 3679 3679 1076 1073 1076 1073 1069 1066 1066 1066 1063 1063 1063 1063 1063 1063 1060 1063 1063 1063 1060 1060 1056 1053 1056 1050 1056 1050 1050 0 0 0 0 0 0 0 0 0 0 0 0 0 1063 1063 1063 1060 1060 1086 1083 1086 0 0 0 0 0 0 0 0 0 0 0 0 0 0 0 0 0 0 0 0 0 0 0 3842 3842 3842 3842 3842 3842 3842 3842 3842 3842 3842 3842 3842 3842 3842 3842 3842 3800 3800 3800 3800 3800 3800 3800 3800 3800 3842 673 673 672 672 672 672 670 670 670 670 669 669 669 668 668 667 667 667 665 665 665 665 665 665 665 664 664 664 664 663 663 661 660 661 660 660 659 659 659 658 656 656 656 656 655 655 655 655 655 654 654 653 653 654 653 651 651 651 651 651 650 650 650 650 649 649 649 649 648 648 648 647 648 648 647 645 645 645 644 644 644 643 644 643 644 643 643 642 642 641 641 641 641 639 639 639 638 638 637 635 635 635 635 635 635 635 634 634 634 634 634 634 632 632 632 630 630 630 630 630 630 629 629 629 629 629 629 628 628 627 627 625 625 625 624 624 624 624 624 623 623 623 622 622 622 621 621 622 622 621 621 621 620 620 620 619 619 619 618 618 618 618 618 618 618 617 617 615 615 614 614 614 614 614 614 613 613 613 612 612 612 611 611 611 610 610 610 610 609 609 608 608 608 608 608 607 607 606 605 605 604 604 604 604 604 604 604 604 601 601 601 600 599 598 598 598 597 597 597 598 598 598 597 597 597 597 597 597 596 0 0 0 0 0 0 0 0 0 0 0 0 0 0 0 0 0 0 0 0 0 0 0 0 0 0 0 0 0 0 0 0 0 0 0 0 0 0 0 0 0 0 0 0 0 0 0 0 0 0 0 0 0 0 0 0 0 0 3324 3293 3293 3293 3293 3293 3293 3293 3293 3293 3293 3293 3262 3262 3231 3231 3231 3201 3201 3172 3172 3172 3172
    0 0 0 0 0 0 0 0 0 0 0 0 0 0 0 0 0 0 0 0 0 0 0 0 0 0 0 0 0 0 0 0 0 0 0 0 0 0 0 0 0 0 0 0 0 0 0 0 0 0 0 0 0 0 0 0 0 0 0 0 0 0 0 0 0 0 0 0 0 0 0 0 0 0 0 0 0 0 0 0 0 0 0 0 0 0 0 0 0 0 0 2133 2133 2133 2133 2147 2147 2147 2147 2147 2160 2160 2174 2174 2174 2187 2187 2187 2187 2187 2187 2187 2187 2187 2201 2201 2201 2187 2201 2639 2639 2619 2619 2599 2599 2619 2599 2619 2619 3565 3565 3565 3565 3565 3565 3565 3565 3565 3565 3565 3565 3565 3565 3565 3565 3565 3565 3565 3565 3565 3565 3565 3565 3565 3565 3565 3565 3565 3565 3565 3565 3565 3565 3565 3565 3565 3565 3565 3565 3565 3565 3565 3565 3565 3565 3565 3565 3565 3602 3602 3602 3602 3602 3602 3640 3640 3640 3640 3640 3640 3640 3640 3602 3640 3640 3640 3640 3640 3640 3640 3602 3602 3602 3602 3602 3602 3602 3640 3640 3679 3640 3640 3640 3640 3640 3640 3640 3679 3679 3640 3640 3679 3679 3679 3679 3640 3640 3640 3640 3679 3640 1073 1073 1073 1069 1069 1066 1066 1063 1063 1063 1063 1063 1060 1063 1063 1060 1060 1060 1060 1060 1056 1053 1047 1047 1047 1047 1047 1047 0 0 0 0 0 0 0 1066 1063 1060 0 0 0 1063 1066 1066 1069 1069 1083 1083 1086 0 0 0 0 0 0 0 0 0 0 0 0 0 0 0 0 0 0 0 0 0 0 0 0 0 3842 3842 3842 3842 3842 3842 3842 3842 3842 3842 3842 3842 3842 3842 3842 3800 3800 3800 3800 3800 3800 3800 3800 3800 3800 672 672 672 672 672 672 672 672 670 669 669 669 669 668 668 667 667 667 665 665 665 665 665 665 664 664 664 664 663 663 661 661 660 660 660 660 660 659 659 658 658 656 656 656 655 655 655 655 655 654 654 653 653 654 653 651 651 651 651 651 650 650 650 650 649 649 649 649 649 648 648 648 648 648 645 645 645 645 644 644 644 643 644 643 644 643 643 642 642 641 641 641 641 639 639 639 638 638 637 635 636 635 635 635 635 635 635 634 634 634 634 634 632 632 632 631 630 630 630 630 630 629 629 629 629 629 629 628 628 627 627 627 625 625 625 624 624 624 624 624 624 623 622 622 621 621 621 622 621 621 621 620 620 619 619 619 619 618 618 618 618 618 618 617 617 617 617 615 615 614 614 614 614 614 613 613 613 613 612 612 612 611 611 611 611 610 610 611 610 610 608 608 608 607 607 607 607 606 605 605 604 604 604 604 604 604 604 604 601 601 600 600 598 598 598 598 597 597 597 597 598 597 597 597 597 596 596 596 596 0 0 0 0 0 0 0 0 0 0 0 0 0 0 0 0 0 0 0 0 0 0 0 0 0 0 0 0 0 0 0 0 0 0 0 0 0 0 0 0 0 0 0 0 0 0 0 0 0 0 0 0 0 0 0 0 0 0 3357 3293 3324 3293 3324 3324 3293 3293 3293 3293 3293 3293 3262 3262 3231 3231 3231 3231 3201 3201 3172 3172 3172
    0 0 0 0 0 0 0 0 0 0 0 0 0 0 0 0 0 0 0 0 0 0 0 0 0 0 0 0 0 0 0 0 0 0 0 0 0 0 0 0 0 0 0 0 0 0 0 0 0 0 0 0 0 0 0 0 0 0 0 0 0 0 0 0 0 0 0 0 0 0 0 0 0 0 0 0 0 0 0 0 0 0 0 0 0 0 0 0 0 0 0 2147 2147 2133 2147 2147 2147 2147 2147 2160 2160 2160 2174 2174 2174 2174 2187 2187 2187 2187 2187 2187 2187 2187 2201 2201 2201 2187 2201 2639 2639 2619 2619 2599 2599 2619 2599 2619 2619 3565 3565 3565 3565 3565 3565 3565 3565 3565 3565 3565 3565 3565 3565 3565 3565 3565 3565 3528 3528 3565 3565 3565 3565 3565 3565 3602 3565 3565 3565 3565 3565 3565 3565 3565 3565 3565 3565 3565 3565 3565 3565 3565 3565 3565 3565 3565 3565 3565 3565 3602 3602 3602 3602 3602 3640 3640 3640 3640 3602 3602 3602 3602 3602 3602 3602 3602 3640 3640 3640 3640 3640 3602 3640 3640 3640 3602 3602 3640 3640 3679 3640 3640 3640 3640 3640 3640 3640 3679 3640 3640 3640 3640 3679 3640 3640 3640 3640 3640 3679 3679 1073 1073 1073 1069 1069 1069 1066 1063 1063 1063 1060 1063 1060 1060 1063 1063 1060 1063 1060 1060 1056 1047 1040 1037 1040 1044 1047 1047 1047 0 0 0 0 0 0 0 1063 1056 1056 1060 0 1060 1060 1063 1066 1069 1069 1079 1079 1083 0 0 0 0 0 0 0 0 0 0 0 0 0 0 0 0 0 0 0 0 0 0 0 0 0 0 3842 3842 3842 3842 3842 3842 3842 3842 3842 3842 3842 3842 3842 3842 3800 3800 3800 3800 3800 3800 3800 3800 3800 3800 672 672 672 672 672 670 672 672 670 670 669 669 669 668 668 667 667 667 665 665 665 665 665 664 664 664 664 663 663 661 661 660 660 660 660 660 660 659 659 658 658 656 656 656 655 655 655 655 655 654 654 654 653 654 651 651 651 651 651 651 650 650 650 650 649 649 649 649 649 648 648 648 648 648 647 645 645 644 644 644 644 643 644 644 644 643 643 642 641 641 639 639 639 639 639 639 638 638 637 636 636 636 636 635 635 635 635 634 634 634 634 634 632 632 632 631 631 631 630 630 630 629 629 629 629 629 629 628 628 627 627 627 625 625 625 624 624 624 624 623 623 622 622 622 621 621 622 622 622 621 621 620 620 619 619 619 618 618 618 618 618 618 618 617 617 617 615 615 615 615 613 613 613 613 613 613 613 613 612 612 612 611 611 611 611 610 610 610 610 610 609 609 608 607 607 607 607 606 606 605 605 604 604 604 604 604 604 604 601 601 600 600 599 598 598 598 598 598 597 597 597 597 597 596 597 596 596 596 0 0 0 0 0 0 0 0 0 0 0 0 0 0 0 0 0 0 0 0 0 0 0 0 0 0 0 0 0 0 0 0 0 0 0 0 0 0 0 0 0 0 0 0 0 0 0 0 0 0 0 0 0 0 0 0 0 0 0 0 3293 3324 3293 3324 3324 3324 3293 3293 3324 3293 3293 3262 3262 3231 3262 3231 3231 3201 3201 3172 3172 3172
    0 0 0 0 0 0 0 0 0 0 0 0 0 0 0 0 0 0 0 0 0 0 0 0 0 0 0 0 0 0 0 0 0 0 0 0 0 0 0 0 0 0 0 0 0 0 0 0 0 0 0 0 0 0 0 0 0 0 0 0 0 0 0 0 0 0 0 0 0 0 0 0 0 0 0 0 0 0 0 0 0 0 0 0 0 0 0 0 0 0 0 2147 2147 2147 2147 2147 2147 2160 2160 2160 2160 2160 2174 2174 2174 2174 2187 2187 2187 2187 2187 2187 2187 2187 2201 2187 2187 2187 2187 2639 2639 2619 2599 2599 2599 2619 2599 2619 2639 3565 3565 3565 3565 3565 3565 3565 3565 3565 3565 3565 3565 3565 3565 3565 3565 3565 3528 3528 3528 3565 3565 3565 3565 3565 3565 3602 3602 3602 3565 3565 3565 3565 3565 3565 3565 3565 3565 3565 3565 3528 3565 3565 3565 3565 3565 3565 3565 3565 3565 3602 3602 3602 3602 3602 3640 3640 3640 3640 3565 3602 3602 3602 3602 3602 3602 3602 3602 3640 3640 3640 3640 3640 3640 3640 3640 3640 3640 3640 3640 3679 3640 3640 3640 3640 3640 3640 3640 3640 3640 3640 3640 3640 3640 3640 3640 3640 3640 3640 3679 1073 1073 1069 1069 1066 1066 1066 1063 1063 1060 1060 1060 1060 1060 1060 1019 1019 1019 1019 1019 1019 1019 1034 1034 1034 1037 1040 1044 1044 0 0 0 0 0 1073 0 0 1047 1047 1050 1053 1056 1056 1060 1063 1066 1069 1069 1079 1079 1083 1086 1086 0 0 0 0 0 0 0 0 0 0 0 0 0 0 0 0 0 0 0 0 0 0 0 0 0 3842 3842 3842 3842 3800 3800 3842 3842 3842 3842 3842 3842 3842 3800 3800 3800 3800 3800 3800 3800 3800 3800 3800 672 672 672 672 672 672 672 672 670 670 669 669 668 668 667 667 667 667 665 665 665 665 664 664 664 663 663 663 661 661 661 660 660 660 660 660 660 659 659 659 658 656 656 656 655 655 655 654 654 654 654 653 653 653 651 651 651 651 651 651 650 650 650 650 649 649 649 649 649 648 648 647 648 648 647 645 645 644 644 644 644 643 644 644 644 643 643 642 641 641 639 639 639 639 639 638 638 638 637 636 636 636 636 635 635 635 634 634 634 634 634 632 632 632 632 631 631 631 630 630 630 629 629 629 629 629 628 628 627 627 627 627 625 625 625 625 624 624 624 623 623 623 622 622 622 621 622 622 622 621 621 620 620 619 620 619 619 619 618 618 618 618 617 615 617 615 615 615 615 613 613 613 613 613 612 612 612 612 612 612 612 611 611 611 611 610 610 610 609 610 609 609 608 608 608 607 607 606 606 606 605 604 604 604 604 604 604 604 601 601 600 600 598 598 598 598 597 598 597 598 597 597 597 597 597 596 596 596 0 0 0 0 0 0 0 0 0 0 0 0 0 0 0 0 0 0 0 0 0 0 0 0 0 0 0 0 0 0 0 0 0 0 0 0 0 0 0 0 0 0 0 0 0 0 0 0 0 0 0 0 0 0 0 0 0 0 0 0 3293 3324 3293 3324 3324 3324 3324 3324 3324 3293 3293 3262 3262 3231 3262 3231 3231 3231 3201 3172 3172 3172
    0 0 0 0 0 0 0 0 0 0 0 0 0 0 0 0 0 0 0 0 0 0 0 0 0 0 0 0 0 0 0 0 0 0 0 0 0 0 0 0 0 0 0 0 0 0 0 0 0 0 0 0 0 0 0 0 0 0 0 0 0 0 0 0 0 0 0 0 0 0 0 0 0 0 0 0 0 0 0 0 0 0 0 0 0 0 0 0 0 0 0 2133 2147 2133 2147 2147 2147 2147 2160 2160 2160 2160 2160 2174 2174 2174 2174 2174 2174 2187 2174 2187 2187 2187 2187 2187 2187 2187 2187 2619 2619 2599 2599 2580 2580 2599 2580 2599 2599 3565 3528 3528 3528 3528 3565 3565 3565 3565 3565 3565 3565 3565 3565 3565 3565 3565 3565 3528 3528 3565 3565 3565 3565 3565 3565 3602 3602 3565 3565 3565 3565 3565 3565 3565 3565 3565 3565 3565 3565 3565 3565 3565 3565 3565 3565 3565 3565 3565 3565 3602 3602 3602 3602 3602 3640 3640 3640 3640 3602 3602 3602 3602 3602 3602 3602 3602 3602 3602 3602 3602 3602 3602 3602 3640 3602 3602 3602 3640 3640 3640 3602 3602 3640 3640 3640 3640 3640 3640 3640 3640 3640 3640 3640 3640 3640 3640 3640 3640 1069 1069 1069 1066 1066 1063 1063 1060 1060 1060 1060 1060 1022 1025 1022 1019 1019 1019 1022 1022 1022 1022 1022 1031 1034 1034 1037 1037 1047 0 0 0 0 0 1073 1073 1044 1044 1047 1047 1050 1050 1050 1053 1056 1060 1063 1069 1073 1076 1079 1083 1086 1086 0 0 0 0 0 0 0 0 0 0 0 0 0 0 0 0 0 0 0 0 0 0 0 0 0 0 3842 3842 3842 3800 3800 3842 3842 3842 3842 3842 3842 3842 3800 3800 3800 3800 3759 3759 3759 3759 3759 3759 670 670 670 670 670 670 670 670 670 669 669 669 668 667 667 667 667 667 665 665 665 665 664 664 664 664 663 663 661 661 661 661 660 660 660 660 660 659 659 659 658 656 656 656 655 655 655 654 654 654 653 653 653 653 651 651 651 651 651 650 650 650 650 650 649 649 649 649 648 648 648 647 648 648 647 647 645 645 644 644 644 643 644 644 644 643 643 642 641 641 639 639 639 639 639 638 638 638 637 636 636 636 635 635 635 635 634 634 634 634 634 632 632 632 632 631 631 631 631 630 630 630 629 629 629 629 628 628 628 627 627 627 625 625 625 624 624 624 624 623 622 622 622 622 621 621 622 622 621 621 620 620 620 619 620 619 619 618 618 618 618 618 618 617 617 617 615 615 615 614 614 613 613 613 612 612 612 612 612 612 612 611 611 611 611 610 609 609 609 609 608 608 608 608 608 607 607 607 606 606 605 605 604 604 604 604 604 603 601 601 600 600 599 598 598 598 598 598 598 598 597 597 597 597 597 597 596 596 0 0 0 0 0 0 0 0 0 0 0 0 0 0 0 0 0 0 0 0 0 0 0 0 0 0 0 0 0 0 0 0 0 0 0 0 0 0 0 0 0 0 0 0 0 0 0 0 0 0 0 0 0 0 0 0 0 0 0 0 3324 3324 3324 3324 3357 3324 3324 3324 3324 3293 3293 3262 3231 3231 3231 3231 3231 3231 3201 3201 3172 3172
    0 0 0 0 0 0 0 0 0 0 0 0 0 0 0 0 0 0 0 0 0 0 0 0 0 0 0 0 0 0 0 0 0 0 0 0 0 0 0 0 0 0 0 0 0 0 0 0 0 0 0 0 0 0 0 0 0 0 0 0 0 0 0 0 0 0 0 0 0 0 0 0 0 0 0 0 0 0 0 0 0 0 0 0 0 0 0 0 0 0 0 2133 2133 2133 2147 2147 2147 2147 2160 2160 2160 2160 2160 2174 2174 2174 2174 2174 2174 2174 2174 2174 2187 2187 2187 2187 2187 2187 2187 2187 2599 2599 2599 2580 2580 2580 2580 2580 3528 3528 3528 3528 3528 3528 3528 3528 3528 3528 3528 3565 3565 3565 3565 3565 3565 3565 3565 3528 3528 3565 3565 3565 3565 3565 3565 3602 3602 3565 3565 3565 3565 3565 3565 3565 3565 3565 3565 3565 3565 3565 3565 3565 3565 3565 3565 3565 3565 3565 3602 3602 3602 3602 3602 3602 3602 3640 3602 3602 3602 3565 3565 3602 3565 3565 3602 3602 3602 3602 3602 3602 3602 3640 3640 3640 3640 3602 3602 3640 3640 3640 3602 3602 3640 3640 3640 3640 3640 3640 3640 3640 3640 3640 3640 3640 3640 3640 1069 1069 1069 1066 1066 1063 1060 1060 1060 1060 1056 1056 1056 1056 1022 1022 1025 1025 1022 1022 1022 1022 1022 1022 1022 1022 1022 1031 1034 1034 0 1034 0 0 0 1069 1066 1073 1050 1047 1047 1047 1050 1050 1053 1053 1056 1060 1060 1069 1073 1076 1076 1083 1083 1086 1090 0 0 0 0 0 0 0 0 0 0 0 0 0 0 0 0 0 0 0 0 0 0 0 0 0 0 3800 3800 3800 3800 3842 3800 3842 3842 3842 3800 3800 3759 3759 3759 3759 3759 3759 3759 3759 3759 3759 670 670 670 670 670 670 670 670 670 669 669 669 668 667 667 667 667 667 665 665 665 665 664 664 664 664 663 663 663 663 661 661 660 660 660 660 660 659 659 659 658 658 656 656 655 655 655 655 654 654 654 653 653 653 651 651 651 651 650 650 650 650 650 649 649 649 649 648 648 648 648 648 648 648 647 647 645 645 644 644 643 643 644 643 643 643 642 641 641 641 639 639 639 639 639 638 638 638 637 636 636 636 635 635 635 634 634 634 634 634 632 632 632 632 632 631 631 631 630 630 630 630 629 629 629 629 628 628 628 627 627 627 625 625 625 624 624 624 624 623 623 623 622 622 622 621 622 622 621 621 620 620 620 619 620 619 619 618 618 618 618 618 617 617 617 617 615 615 615 614 614 614 613 613 612 612 612 612 612 612 612 611 611 611 611 610 610 609 609 609 608 608 608 607 608 607 607 607 606 606 606 605 605 604 604 604 604 603 601 601 600 600 599 599 598 598 598 598 598 598 597 597 597 597 597 597 597 596 0 0 0 0 0 0 0 0 0 0 0 0 0 0 0 0 0 0 0 0 0 0 0 0 0 0 0 0 0 0 0 0 0 0 0 0 0 0 0 0 0 0 0 0 0 0 0 0 0 0 0 0 0 0 0 0 0 0 0 3201 3293 3324 3324 3324 3357 3324 3357 3324 3324 3293 3262 3262 3231 3231 3262 3231 3231 3201 3201 3172 3172 3172
    0 0 0 0 0 0 0 0 0 0 0 0 0 0 0 0 0 0 0 0 0 0 0 0 0 0 0 0 0 0 0 0 0 0 0 0 0 0 0 0 0 0 0 0 0 0 0 0 0 0 0 0 0 0 0 0 0 0 0 0 0 0 0 0 0 0 0 0 0 0 0 0 0 0 0 0 0 0 0 0 0 0 0 0 0 0 0 0 0 0 0 2133 2133 2133 2147 2147 2147 2147 2160 2160 2160 2147 2160 2174 2174 2160 2174 2174 2174 2174 2174 2174 2187 2187 2187 2187 2187 2187 2187 2187 2599 2599 2580 2580 2580 2580 2580 2580 3528 3528 3528 3528 3528 3528 3528 3528 3528 3528 3528 3528 3528 3528 3528 3528 3528 3528 3565 3528 3528 3565 3565 3565 3565 3565 3565 3602 3602 3565 3565 3565 3565 3565 3565 3565 3565 3565 3565 3565 3565 3565 3565 3565 3565 3565 3565 3565 3565 3565 3565 3602 3602 3602 3602 3602 3602 3640 3602 3602 3602 3565 3565 3565 3565 3565 3602 3602 3565 3602 3602 3602 3602 3640 3602 3640 3640 3602 3602 3602 3640 3602 3565 3565 3602 3602 3602 3602 3602 3640 3602 3602 3602 3602 3640 3640 1066 1066 1066 1063 1066 1066 1063 1060 1060 1060 1056 1056 1056 1060 1056 1028 1025 1025 1025 1025 1022 1022 1022 1022 1022 1022 1022 1022 1022 1025 1031 1034 1034 0 0 1066 1066 1066 1066 1066 1056 1047 1047 1047 1050 1050 1053 1053 1056 1056 1060 1066 1069 1073 1076 1079 1083 1086 1090 0 0 0 0 0 0 0 0 0 0 0 0 0 0 0 0 0 0 0 0 0 0 0 0 0 0 0 3800 3800 3800 3800 3800 3800 3800 3800 3800 3800 3759 3759 3759 3759 3759 3800 3800 3759 3759 3759 669 669 670 670 670 670 670 670 670 670 669 669 668 668 667 667 667 667 665 665 665 665 664 664 664 664 663 663 663 663 661 660 660 660 660 660 659 659 659 659 658 656 656 656 655 655 655 654 654 654 654 654 653 653 651 651 651 651 650 650 650 650 650 649 649 648 648 648 648 648 648 647 648 647 647 647 645 645 644 644 644 643 643 643 643 643 642 641 641 641 639 639 639 638 638 638 638 637 637 636 636 635 635 635 635 634 634 634 634 634 634 632 632 632 631 631 631 631 630 630 630 630 629 629 629 628 628 628 627 627 625 625 625 625 625 624 624 624 624 623 623 623 622 622 622 622 622 622 621 621 620 620 620 619 620 620 619 619 618 618 618 618 617 617 617 617 615 615 615 614 614 614 613 613 612 612 612 612 612 612 611 611 611 611 611 610 610 609 608 609 608 608 607 607 607 607 607 607 606 606 605 605 604 604 604 604 603 603 601 600 600 600 599 599 598 598 598 598 597 598 597 597 597 597 597 597 597 596 0 0 0 0 0 0 0 0 0 0 0 0 0 0 0 0 0 0 0 0 0 0 0 0 0 0 0 0 0 0 0 0 0 0 0 0 0 0 0 0 0 0 0 0 0 0 0 0 0 0 0 0 0 0 0 0 0 0 0 0 0 3357 3324 3357 3357 3357 3357 3324 3293 3293 3262 3231 3231 3231 3231 3231 3201 3201 3201 3172 3172 3172
    0 0 0 0 0 0 0 0 0 0 0 0 0 0 0 0 0 0 0 0 0 0 0 0 0 0 0 0 0 0 0 0 0 0 0 0 0 0 0 0 0 0 0 0 0 0 0 0 0 0 0 0 0 0 0 0 0 0 0 0 0 0 0 0 0 0 0 0 0 0 0 0 0 0 0 0 0 0 0 0 0 0 0 0 0 0 0 0 0 0 2133 2133 2133 2133 2147 2147 2147 2147 2147 2160 2160 2147 2160 2160 2174 2160 2174 2174 2174 2174 2174 2187 2187 2187 2187 2187 2187 2187 2187 2599 2599 2599 2580 2580 2580 2580 2580 2580 3528 3565 3528 3528 3528 3528 3528 3528 3528 3528 3528 3528 3528 3528 3528 3528 3528 3565 3528 3528 3528 3565 3565 3565 3565 3565 3565 3602 3602 3565 3565 3565 3565 3602 3565 3565 3565 3565 3602 3565 3565 3565 3565 3565 3565 3565 3565 3602 3565 3565 3565 3602 3602 3602 3602 3602 3602 3640 3602 3602 3602 3565 3565 3565 3565 3565 3565 3565 3565 3602 3602 3602 3602 3640 3640 3640 3640 3602 3602 3640 3640 3602 3565 3565 3602 3602 3640 3602 3602 3602 3640 3602 3602 1069 1069 1069 1066 1066 1066 1063 1060 1060 1060 1056 1056 1056 1053 1047 1044 1037 1034 1028 1028 1025 1025 1025 1028 1022 1022 1022 1022 1022 1022 1022 1022 1025 1028 1028 1028 1031 0 1069 1069 1063 1066 1063 1060 1053 1047 1047 1050 1050 1050 1053 1053 1056 1056 1060 1063 1069 1073 1076 1079 1083 1086 1086 0 0 0 0 0 0 0 0 0 0 0 0 0 0 0 0 0 0 0 0 0 0 0 0 0 0 3800 3800 3800 3800 3800 3842 3800 3800 3800 3800 3759 3759 3759 3759 3800 3800 3800 3800 3800 3759 670 670 670 670 672 670 670 670 670 670 669 669 668 667 667 667 667 667 665 665 665 664 664 664 664 663 663 663 663 663 661 660 660 660 660 660 659 659 659 658 658 656 656 656 655 655 655 654 654 654 654 654 653 653 651 651 651 650 650 650 650 649 649 649 649 648 648 648 648 648 647 647 647 647 647 645 645 645 644 644 644 644 644 643 643 643 642 641 641 641 639 639 639 638 638 638 638 638 638 636 636 636 635 635 635 634 634 634 634 634 634 632 632 632 631 631 631 631 630 630 630 630 629 629 629 628 628 628 627 627 627 627 625 625 625 624 624 624 624 623 623 623 623 623 622 622 622 622 621 621 620 620 620 619 620 619 619 618 618 618 617 618 617 617 617 615 615 615 615 614 614 614 613 612 612 612 612 612 611 611 611 611 611 610 611 610 609 609 608 608 608 608 607 607 607 607 607 607 606 606 605 604 604 604 603 603 603 603 600 600 600 600 599 599 598 598 598 598 598 598 597 597 597 597 597 597 597 596 0 0 0 0 0 0 0 0 0 0 0 0 0 0 0 0 0 0 0 0 0 0 0 0 0 0 0 0 0 0 0 0 0 0 0 0 0 0 0 0 0 0 0 0 0 0 0 0 0 0 0 0 0 0 0 0 0 0 0 0 3293 3357 3324 3357 3357 3357 3357 3324 3293 3293 3262 3231 3231 3231 3231 3231 3201 3231 3201 3172 3172 3143
    0 0 0 0 0 0 0 0 0 0 0 0 0 0 0 0 0 0 0 0 0 0 0 0 0 0 0 0 0 0 0 0 0 0 0 0 0 0 0 0 0 0 0 0 0 0 0 0 0 0 0 0 0 0 0 0 0 0 0 0 0 0 0 0 0 0 0 0 0 0 0 0 0 0 0 0 0 0 0 0 0 0 0 0 0 0 0 0 0 0 2120 2133 2133 2133 2147 2147 2147 2147 2147 2160 2160 2147 2147 2160 2160 2160 2160 2174 2174 2174 2174 2174 2187 2187 2187 2187 2187 2187 2174 2599 2599 2599 2580 2580 2580 2580 2580 2560 3528 3528 3528 3528 3528 3528 3528 3528 3528 3528 3528 3528 3528 3528 3528 3528 3528 3565 3528 3528 3528 3565 3565 3565 3565 3565 3565 3602 3602 3565 3565 3565 3565 3565 3565 3565 3565 3602 3602 3565 3565 3565 3565 3565 3565 3565 3565 3602 3565 3565 3565 3602 3602 3602 3602 3602 3640 3640 3602 3602 3565 3565 3565 3565 3565 3565 3565 3565 3565 3602 3602 3602 3602 3602 3640 3602 3602 3602 3602 3602 3602 3602 3528 3565 3565 3602 3602 3602 3602 3602 3602 3602 3602 1069 1069 1066 1066 1066 1066 1063 1056 1053 1053 1050 1050 1050 1047 1047 1044 1034 1034 1031 1028 1028 1025 1025 1028 1022 1022 1022 1022 1022 1022 1022 1022 1025 1028 1028 1031 1031 1034 1053 1060 1060 1063 1060 1060 1050 1047 1047 1050 1050 1050 1053 1053 1056 1056 1060 1063 1066 1069 1073 1076 1079 1083 1083 1086 1090 0 0 0 0 0 0 0 0 0 0 0 0 0 0 0 0 0 0 0 0 0 0 0 0 0 3800 3800 3800 3800 3800 3800 3800 3800 3800 3759 3759 3800 3800 3800 3800 3800 3800 3800 3759 673 672 672 672 672 672 672 670 670 669 669 669 668 667 667 667 667 667 665 665 664 664 664 664 664 664 663 663 663 663 661 660 660 660 660 660 659 659 659 659 658 656 656 656 655 655 655 654 654 654 654 654 653 653 651 651 651 650 650 650 650 649 649 649 648 648 648 648 648 647 647 647 645 645 645 645 644 644 644 644 644 644 643 643 643 642 641 641 641 639 639 639 639 639 639 638 638 638 638 636 637 636 636 635 635 634 634 634 632 632 632 632 632 631 631 631 631 631 630 630 630 629 629 629 628 628 627 627 627 627 625 625 625 625 625 624 624 624 624 623 623 623 623 623 622 622 622 621 621 620 620 620 620 619 620 619 619 618 618 618 617 617 617 617 617 615 615 615 615 614 614 614 613 612 612 612 612 612 612 612 611 611 611 611 611 610 609 608 608 608 608 608 607 607 607 607 607 607 606 606 605 604 604 604 603 603 603 603 601 600 600 600 599 599 598 598 598 598 598 598 597 597 597 597 597 597 597 596 595 0 0 0 0 0 0 0 0 0 0 0 0 0 0 0 0 0 0 0 0 0 0 0 0 0 0 0 0 0 0 0 0 0 0 0 0 0 0 0 0 0 0 0 0 0 0 0 0 0 0 0 0 0 0 0 0 0 0 3293 3324 3357 3324 3357 3324 3324 3324 3293 3293 3262 3262 3231 3231 3231 3231 3201 3201 3201 3201 3172 3172 3143
    0 0 0 0 0 0 0 0 0 0 0 0 0 0 0 0 0 0 0 0 0 0 0 0 0 0 0 0 0 0 0 0 0 0 0 0 0 0 0 0 0 0 0 0 0 0 0 0 0 0 0 0 0 0 0 0 0 0 0 0 0 0 0 0 0 0 0 0 0 0 0 0 0 0 0 0 0 0 0 0 0 0 0 0 0 0 0 0 0 0 2133 2147 2133 2133 2147 2147 2147 2147 2147 2160 2160 2147 2147 2147 2160 2160 2160 2160 2160 2174 2174 2174 2187 2187 2187 2187 2187 2187 2187 2599 2599 2580 2580 2580 2580 2580 2580 2560 3528 3528 3528 3528 3528 3528 3528 3528 3528 3528 3528 3528 3528 3528 3528 3528 3528 3565 3528 3528 3528 3565 3565 3565 3565 3565 3565 3565 3565 3565 3565 3565 3565 3528 3565 3565 3565 3602 3602 3565 3565 3565 3565 3565 3602 3602 3565 3602 3565 3565 3565 3602 3602 3602 3602 3602 3602 3640 3602 3602 3602 3565 3565 3565 3565 3565 3602 3602 3602 3602 3602 3602 3602 3602 3602 3602 3602 3602 3602 3602 3602 3602 3528 3565 3565 3565 3602 3602 3565 3602 3602 3602 3602 1066 1066 1066 1066 1063 1063 1060 1056 1056 1053 1047 1047 1047 1044 1044 1037 1031 1031 1028 1028 1025 1025 1025 1025 1025 1025 1025 1022 1022 1022 1022 1025 1028 1031 1028 1034 1034 1034 1053 1053 1056 1056 1050 1050 1047 1047 1047 1047 1047 1047 1050 1050 1053 1056 1060 1060 1063 1066 1069 1076 1079 1083 1083 1086 1090 1090 0 0 0 0 0 0 0 0 0 0 0 0 0 0 0 0 0 0 0 0 0 0 0 0 0 3759 3800 3800 3800 3800 3800 3800 3800 3800 3800 3800 3800 3800 3800 3800 3800 3800 3800 672 670 672 672 672 672 670 670 670 670 669 669 668 668 667 667 667 667 665 665 664 664 664 664 664 664 663 663 663 663 661 660 660 660 660 660 659 659 659 659 658 656 656 656 655 655 655 654 654 654 653 653 653 653 651 651 651 650 650 650 650 649 649 649 648 648 648 648 648 647 647 645 645 645 645 644 644 644 644 644 644 643 643 643 642 642 641 641 641 639 639 639 639 638 638 638 638 638 638 637 636 636 636 635 635 634 634 634 632 632 632 632 631 631 631 630 630 630 630 630 630 629 629 629 628 628 627 627 627 627 625 625 625 625 624 624 624 624 624 623 623 623 623 623 622 622 622 621 621 620 620 620 620 619 620 619 619 618 618 617 617 617 617 617 617 615 615 615 615 614 614 613 613 613 612 612 612 612 612 612 611 611 611 610 611 610 609 608 608 608 608 608 607 607 607 607 607 606 606 605 605 604 604 604 603 603 603 603 601 600 600 600 600 599 599 599 598 598 598 598 597 597 597 597 597 597 597 596 595 0 0 0 0 0 0 0 0 0 0 0 0 0 0 0 0 0 0 0 0 0 0 0 0 0 0 0 0 0 0 0 0 0 0 0 0 0 0 0 0 0 0 0 0 0 0 0 0 0 0 0 0 0 0 0 0 0 3262 3293 3293 3324 3324 3324 3324 3324 3324 3293 3262 3262 3262 3231 3201 3201 3201 3172 3172 3201 3172 3172 3143 3143
    0 0 0 0 0 0 0 0 0 0 0 0 0 0 0 0 0 0 0 0 0 0 0 0 0 0 0 0 0 0 0 0 0 0 0 0 0 0 0 0 0 0 0 0 0 0 0 0 0 0 0 0 0 0 0 0 0 0 0 0 0 0 0 0 0 0 0 0 0 0 0 0 0 0 0 0 0 0 0 0 0 0 0 0 0 0 0 0 0 2107 2120 2133 2133 2133 2147 2147 2147 2147 2147 2147 2160 2147 2147 2147 2147 2160 2160 2160 2160 2174 2174 2174 2174 2174 2187 2187 2187 2187 2187 2187 2580 2580 2580 2580 2580 2580 2580 2560 3528 3528 3528 3528 3528 3528 3493 3528 3493 3493 3493 3528 3528 3528 3528 3528 3528 3528 3528 3528 3528 3565 3565 3565 3565 3565 3565 3565 3565 3565 3565 3565 3565 3565 3565 3565 3565 3565 3602 3565 3565 3565 3565 3565 3602 3565 3602 3602 3602 3602 3602 3602 3602 3602 3602 3602 3602 3602 3602 3602 3602 3565 3602 3565 3602 3602 3602 3602 3602 3602 3602 3602 3602 3602 3602 3602 3602 3602 3602 3602 3602 3602 3565 3565 3565 3565 3565 3565 3565 3565 3602 3602 3602 1069 1066 1066 1066 1063 1063 1060 1056 1053 1050 1047 1044 1044 1044 1040 1034 1034 1034 1031 1031 1031 1025 1025 1031 1025 1031 1031 1031 1031 1031 1022 1025 1028 1031 1031 1034 1034 1037 1037 1047 1047 1047 1047 1047 1047 1047 1047 1047 1047 1047 1050 1050 1050 1053 1056 1060 1060 1066 1069 1073 1076 1083 1083 1086 1086 1090 1093 0 0 0 0 0 0 0 0 0 0 0 0 0 0 0 0 0 0 0 0 0 0 0 0 0 3759 3800 3800 3800 3800 3800 3800 3759 3800 3800 3800 3800 3800 3800 3800 3800 3759 673 672 670 672 672 670 670 670 670 670 669 669 668 668 667 667 667 667 665 665 665 664 664 664 664 664 663 663 663 663 661 660 660 660 660 660 659 659 659 659 658 656 656 656 655 655 654 654 654 653 653 653 653 653 651 651 650 650 650 650 649 649 649 649 648 648 648 648 647 647 647 647 645 645 645 644 644 644 644 644 644 643 643 643 642 641 641 641 641 639 639 639 639 638 638 638 638 637 637 636 636 636 636 635 634 634 634 632 632 632 632 632 631 631 631 630 630 630 629 630 629 629 629 629 628 628 627 627 625 625 625 625 625 625 624 624 624 624 624 623 623 623 623 623 622 622 621 621 621 620 620 620 620 619 620 619 619 618 618 617 617 617 617 617 617 615 615 615 615 614 614 613 613 613 612 612 612 612 611 611 611 611 611 610 610 609 609 608 608 608 608 608 607 607 607 607 607 606 606 605 605 604 604 604 603 603 603 603 601 600 600 600 600 599 599 598 598 598 598 598 598 597 597 597 597 597 597 596 594 0 0 0 0 0 0 0 0 0 0 0 0 0 0 0 0 0 0 0 0 0 0 0 0 0 0 0 0 0 0 0 0 0 0 0 0 0 0 0 0 0 0 0 0 0 0 0 0 0 0 0 0 0 0 0 0 0 3262 3293 3293 3324 3324 3324 3324 3324 3293 3262 3262 3231 3231 3201 3201 3201 3201 3172 3172 3172 3172 3172 3172 3143
    0 0 0 0 0 0 0 0 0 0 0 0 0 0 0 0 0 0 0 0 0 0 0 0 0 0 0 0 0 0 0 0 0 0 0 0 0 0 0 0 0 0 0 0 0 0 0 0 0 0 0 0 0 0 0 0 0 0 0 0 0 0 0 0 0 0 0 0 0 0 0 0 0 0 0 0 0 0 0 0 0 0 0 0 0 0 0 0 2095 2095 2107 2120 2120 2120 2133 2133 2147 2147 2147 2147 2147 2147 2147 2147 2147 2147 2147 2160 2160 2160 2174 2174 2174 2174 2174 2187 2187 2187 2187 2187 2580 2580 2580 2580 2580 2580 2560 2560 3528 3528 3528 3528 3528 3528 3493 3493 3493 3493 3493 3493 3528 3493 3528 3528 3528 3528 3528 3528 3528 3565 3565 3565 3565 3565 3565 3565 3565 3528 3565 3565 3565 3565 3565 3565 3602 3602 3602 3565 3565 3565 3565 3565 3565 3565 3602 3602 3602 3602 3602 3602 3602 3602 3602 3602 3602 3602 3602 3602 3602 3565 3602 3602 3602 3602 3602 3602 3602 3602 3602 3602 3602 3602 3602 3602 3602 3602 3602 3602 3602 3602 3565 3565 3565 3602 3602 3565 3565 3602 3640 3640 1066 1069 1066 1066 1063 1063 1063 1056 1053 1050 1044 1044 1044 1040 1040 1037 1034 1034 1034 1031 1031 1031 1031 1034 1034 1034 1031 1031 1031 1034 1034 1025 1028 1031 1034 1034 1034 1037 1040 1044 1047 1050 1050 1047 1050 1047 1047 1047 1047 1047 1047 1050 1050 1050 1053 1056 1056 1060 1063 1066 1069 1076 1079 1083 1083 1086 1086 1090 1090 0 0 0 0 0 0 0 0 0 0 0 0 0 0 0 0 0 0 0 0 0 0 0 0 0 0 0 3759 3800 3800 3800 3759 3759 3759 3759 3759 3800 3800 3800 3759 3759 672 670 670 670 672 670 670 670 670 670 669 669 668 668 667 667 667 665 665 665 664 664 664 664 664 664 663 663 663 663 660 660 660 660 660 660 659 659 659 658 658 656 656 655 655 655 654 654 654 654 654 654 653 653 651 650 650 650 650 649 649 649 649 648 648 648 647 647 647 647 645 645 645 645 645 644 644 644 644 644 643 643 642 642 641 641 641 641 639 639 639 639 638 638 638 637 637 637 637 636 636 635 635 635 635 634 634 634 632 632 632 632 631 631 631 630 630 630 629 629 629 629 628 629 628 628 627 627 625 625 625 625 625 625 624 624 624 624 624 623 622 622 622 622 622 621 621 621 621 620 620 620 620 619 619 619 618 618 617 617 617 617 617 617 617 617 615 615 615 614 614 613 613 613 612 612 612 612 612 611 611 611 611 610 610 609 609 608 608 608 608 607 607 607 607 607 606 606 605 605 604 604 604 604 603 603 603 603 601 600 600 600 600 599 599 599 598 598 598 597 597 597 597 597 597 597 597 596 0 0 0 0 0 0 0 0 0 0 0 0 0 0 0 0 0 0 0 0 0 0 0 0 0 0 0 0 0 0 0 0 0 0 0 0 0 0 0 0 0 0 0 0 0 0 0 0 0 0 0 0 0 0 0 0 0 0 3262 3293 3324 3324 3324 3324 3324 3324 3293 3262 3262 3262 3231 3201 3201 3172 3172 3172 3172 3172 3172 3172 3172 3143
    0 0 0 0 0 0 0 0 0 0 0 0 0 0 0 0 0 0 0 0 0 0 0 0 0 0 0 0 0 0 0 0 0 0 0 0 0 0 0 0 0 0 0 0 0 0 0 0 0 0 0 0 0 0 0 0 0 0 0 0 0 0 0 0 0 0 0 0 0 0 0 0 0 0 0 0 0 0 0 0 0 0 0 0 0 0 0 2095 2095 2095 2107 2120 2120 2120 2133 2133 2133 2147 2147 2147 2147 2133 2147 2147 2147 2147 2147 2160 2160 2174 2174 2174 2174 2187 2187 2187 2187 2187 2187 2187 2580 2580 2580 2580 2580 2580 2580 2560 3528 3528 3528 3528 3528 3528 3528 3528 3493 3493 3493 3493 3528 3493 3493 3493 3528 3528 3528 3528 3528 3528 3528 3528 3528 3528 3528 3565 3565 3528 3565 3565 3565 3565 3565 3565 3565 3565 3602 3565 3565 3565 3565 3565 3565 3565 3565 3602 3602 3602 3602 3602 3602 3602 3602 3602 3602 3602 3602 3602 3565 3565 3565 3565 3602 3602 3602 3602 3565 3602 3565 3602 3602 3602 3565 3602 3602 3602 3602 3602 3602 3602 3565 3565 3565 3602 3602 3602 3602 3602 3640 3679 1066 1066 1066 1063 1063 1060 1060 1056 1053 1047 1044 1040 1040 1037 1037 1034 1034 1034 1034 1031 1034 1031 1034 1034 1034 1034 1034 1034 1034 1037 1037 1034 1031 1034 1034 1034 1037 1040 1040 1044 1047 1047 1050 1050 1047 1047 1047 1047 1047 1050 1050 1050 1050 1053 1053 1056 1056 1060 1063 1066 1069 1073 1076 1079 1083 1086 1086 1090 1090 1093 1097 0 0 0 0 0 0 0 0 0 0 0 0 0 0 0 0 0 0 0 0 0 0 0 0 0 0 3759 3800 3800 3800 3800 3759 3800 3759 3800 3800 3800 3800 672 672 672 670 672 672 670 670 670 670 670 669 669 668 668 667 667 665 665 665 665 664 664 664 664 664 663 663 663 663 661 660 660 660 660 660 659 659 659 659 658 656 656 655 655 654 654 654 654 654 654 654 654 653 653 651 650 650 650 649 649 649 649 649 648 648 647 647 647 647 647 645 645 645 645 645 644 644 644 644 644 643 643 642 642 641 641 641 641 639 639 639 639 638 638 637 637 637 637 636 635 636 635 636 635 635 634 634 632 632 632 632 632 631 631 631 630 630 629 629 629 629 629 628 628 628 627 627 625 625 625 625 625 625 625 624 624 624 624 623 623 622 622 622 622 622 622 621 621 621 620 620 620 620 619 619 619 618 618 617 617 617 617 617 617 617 617 615 615 615 614 614 613 613 613 612 612 612 612 611 611 611 611 611 610 610 609 609 608 608 608 607 607 607 607 607 606 606 605 605 604 604 604 604 603 603 603 603 603 601 600 600 600 600 599 599 598 598 597 597 597 597 597 597 597 597 597 597 597 0 0 0 0 0 0 0 0 0 0 0 0 0 0 0 0 0 0 0 0 0 0 0 0 0 0 0 0 0 0 0 0 0 0 0 0 0 0 0 0 0 0 0 0 0 0 0 0 0 0 0 0 0 0 0 0 0 0 0 0 3324 3324 3324 3357 3324 3324 3293 3293 3262 3262 3262 3201 3172 3172 3172 3172 3172 3172 3172 3172 3172 3143
    0 0 0 0 0 0 0 0 0 0 0 0 0 0 0 0 0 0 0 0 0 0 0 0 0 0 0 0 0 0 0 0 0 0 0 0 0 0 0 0 0 0 0 0 0 0 0 0 0 0 0 0 0 0 0 0 0 0 0 0 0 0 0 0 0 0 0 0 0 0 0 0 0 0 0 0 0 0 0 0 0 0 0 0 0 0 0 0 2095 2107 2107 2120 2120 2133 2133 2133 2147 2147 2147 2147 2147 2133 2147 2147 2147 2147 2147 2160 2160 2174 2174 2174 2174 2187 2187 2187 2187 2187 2174 2580 2580 2580 2580 2580 2580 2580 2580 2580 3493 3528 3528 3528 3493 3528 3528 3528 3493 3493 3493 3493 3528 3528 3493 3528 3528 3528 3528 3528 3528 3528 3528 3528 3528 3528 3528 3565 3565 3528 3565 3565 3565 3602 3602 3602 3602 3602 3602 3565 3565 3565 3565 3565 3565 3565 3602 3602 3640 3640 3602 3602 3602 3602 3602 3602 3565 3565 3602 3602 3565 3565 3602 3565 3602 3602 3602 3602 3565 3565 3565 3565 3565 3565 3565 3565 3602 3602 3602 3602 3602 3602 3565 3565 3602 3602 3602 3602 3602 3602 3640 1066 1066 1066 1063 1063 1063 1060 1056 1056 1050 1044 1040 1037 1037 1034 1034 1034 1034 1034 1034 1034 1034 1034 1034 1034 1037 1037 1034 1034 1034 1037 1037 1037 1034 1034 1037 1037 1040 1040 1040 1044 1047 1044 1047 1044 1047 1047 1047 1047 1047 1050 1050 1050 1050 1053 1053 1056 1056 1056 1060 1063 1066 1073 1073 1076 1083 1083 1086 1090 1093 1097 1097 1100 0 0 0 0 0 0 0 0 0 0 0 0 0 0 0 0 0 0 0 0 0 0 0 0 0 3800 3800 3800 3800 3800 3800 3800 3800 3800 3800 3800 3800 672 673 672 672 672 672 672 670 670 670 670 669 669 668 668 667 665 665 665 665 665 665 664 664 664 664 663 663 663 661 661 660 660 660 660 660 659 659 659 659 658 656 656 655 655 654 654 654 654 654 654 654 654 653 653 651 650 650 650 649 649 649 649 649 648 648 648 647 647 647 647 645 645 645 645 645 644 644 644 644 644 644 643 643 642 641 641 641 641 639 639 639 639 638 638 637 637 637 636 636 635 636 635 635 635 635 634 634 632 632 632 632 632 631 631 631 630 630 630 629 629 629 628 628 628 628 627 627 625 625 627 625 625 625 625 624 624 624 624 623 622 622 622 622 622 621 621 621 621 621 620 620 620 620 619 619 618 618 617 617 617 617 617 617 617 615 615 615 615 614 613 613 613 613 612 612 612 612 612 611 611 611 611 611 610 610 609 609 608 608 607 607 607 607 607 606 606 605 605 605 605 604 604 604 604 603 603 603 603 601 600 600 600 599 599 598 598 597 597 597 597 597 597 597 597 597 597 597 596 0 0 0 0 0 0 0 0 0 0 0 0 0 0 0 0 0 0 0 0 0 0 0 0 0 0 0 0 0 0 0 0 0 0 0 0 0 0 0 0 0 0 0 0 0 0 0 0 0 0 0 0 0 0 0 0 0 0 0 0 3324 3324 3293 3324 3324 3357 3293 3293 3262 3231 3231 3201 3172 3172 3172 3172 3172 3172 3172 3172 3172 3172</data></dframe>
</opencv_storage>
