<?xml version="1.0"?>
<opencv_storage>
<dframe type_id="opencv-matrix">
  <rows>35</rows>
  <cols>640</cols>
  <dt>w</dt>
  <data>
    0 0 0 0 0 0 0 0 0 0 0 0 0 0 0 0 0 0 0 0 0 0 0 0 0 0 0 0 0 0 0 0 0 0 0 0 0 0 0 0 0 0 0 0 0 0 0 0 0 0 0 0 0 0 0 0 1899 1899 1899 1899 1899 1909 1899 1899 1899 0 2523 2523 2542 2542 2523 2505 2505 2487 2487 2487 2469 2469 2451 2451 2434 2434 2417 2417 2400 2384 2351 2335 2320 2320 2304 2304 2304 2320 2304 2320 2320 3172 3172 3172 3201 3201 3201 3201 3201 3201 3201 3201 3201 3201 3201 3201 3201 3201 3231 3201 3201 3201 3201 3201 3201 3201 3201 3231 3201 3231 3231 3231 3201 3201 3201 3201 3201 3201 3201 3201 3201 3201 3201 3172 3172 3172 3172 3172 3172 3172 3172 3172 3172 3172 3172 3172 3172 1083 1079 1076 1076 1076 1073 1076 1073 1073 1073 1073 1069 1069 1066 1060 1060 1056 1053 1053 1053 1053 1050 1053 1053 1053 1056 1060 1063 1066 1066 1066 1066 1069 1069 1069 1069 1069 1066 1069 1069 1066 1066 1066 1066 1066 1066 1063 1066 1063 1063 1063 1063 1063 1060 1060 1063 1063 1063 1063 1063 1060 1060 1060 1056 1053 1050 1050 1050 1050 1050 1050 1050 1050 1050 1050 1050 1047 1047 1047 1044 1044 1044 1044 1044 1044 1044 1044 1044 1044 1040 1040 1040 1037 1034 1031 1028 1025 1025 1022 1022 1022 1022 1022 1022 1022 1022 1022 1022 1022 1022 1025 1022 1022 1022 1022 1022 1022 1019 1019 1019 1019 1019 1016 1016 1016 1016 1016 1016 1016 1016 1016 1013 1013 1010 1010 1010 1010 1007 1007 1007 1007 1010 1010 1010 1010 1010 1010 1010 1010 1010 1010 1010 1010 1010 1010 1010 1007 1007 1007 1007 1007 1004 1001 998 993 993 987 984 984 987 987 987 987 987 984 987 984 984 984 984 984 984 987 987 987 987 987 990 990 990 990 990 990 993 993 993 993 993 993 993 993 995 995 995 995 995 995 998 998 998 998 1001 1001 1001 1001 998 995 995 993 993 990 990 990 987 987 987 984 984 984 984 981 981 981 981 978 976 976 973 973 973 970 970 970 970 968 965 962 962 959 959 959 957 957 957 954 954 952 952 949 949 949 949 946 946 946 946 946 946 944 944 944 944 941 941 939 936 936 933 933 933 931 931 928 928 928 926 926 926 923 923 923 923 921 921 919 919 919 919 919 919 919 798 798 799 798 796 794 792 788 788 785 785 785 783 783 781 780 780 780 778 778 778 778 778 778 778 778 778 778 778 778 780 780 780 781 783 783 783 785 783 785 785 785 785 788 790 788 790 790 792 794 796 798 799 803 807 813 815 0 0 0 0 0 0 0 0 0 0 0 0 0 0 0 0 0 0 0 0 0 0 0 0 0 0 0 0 0 0 0 0 0 0 0 0 0 0 0 0 0 3390 3423 3390 3390 3390 3390 3423 3423 3423 3423 3390 3423 3423 3423 3423 3423 3423 3423 3423 3423 3390 3390 3390 3390 3390 3357 3390 3390 3390 3423 3423 3423 3458 3458 3458 3423 3423 3390 3423 3423 3423 3423 3423 3458 3458 3458 3458 3423 3423 3423 3423 3423 3423 3423 3390 3390 3390 3357 3357 3357 3357 3357 3357 3324 3293 3293 3262 3262 3231 3201 3201 3172 3172 3143 3143 3143 3143 3143 3143 3115 3115 3115 3087 3087 3059 3059 3033 3033
    0 0 0 0 0 0 0 0 0 0 0 0 0 0 0 0 0 0 0 0 0 0 0 0 0 0 0 0 0 0 0 0 0 0 0 0 0 0 0 0 0 0 0 0 0 0 0 0 0 0 0 0 0 0 0 0 1909 1909 1899 1909 1909 1909 1909 1909 1909 0 2523 2523 2523 2523 2523 2505 2505 2487 2487 2469 2469 2451 2451 2434 2434 2434 2417 2400 2384 2367 2335 2320 2320 2304 2304 2304 2304 2304 2304 2320 2320 3172 3172 3172 3201 3201 3201 3201 3201 3201 3201 3201 3201 3201 3201 3201 3201 3201 3231 3201 3201 3201 3201 3201 3201 3201 3231 3201 3201 3201 3231 3201 3201 3201 3201 3201 3201 3201 3201 3201 3201 3201 3172 3172 3172 3172 3172 3172 3172 3172 3172 3172 3172 3172 3172 3172 3172 1076 1076 1073 1069 1069 1066 1069 1069 1066 1066 1063 1063 1063 1060 1056 1056 1053 1050 1050 1050 1050 1050 1050 1050 1050 1053 1056 1060 1063 1063 1063 1066 1066 1066 1066 1066 1066 1066 1066 1066 1066 1063 1063 1063 1063 1063 1063 1063 1063 1063 1063 1063 1060 1060 1060 1060 1060 1060 1060 1060 1060 1060 1056 1053 1053 1050 1050 1047 1047 1047 1047 1050 1050 1050 1050 1050 1047 1047 1047 1044 1044 1044 1044 1044 1044 1044 1040 1040 1040 1040 1037 1037 1034 1031 1028 1025 1025 1022 1022 1022 1022 1022 1022 1022 1019 1019 1022 1022 1022 1022 1022 1022 1022 1022 1019 1019 1019 1019 1019 1016 1016 1016 1013 1013 1013 1013 1013 1013 1013 1013 1013 1010 1010 1010 1007 1007 1007 1007 1007 1007 1007 1007 1007 1010 1007 1007 1010 1007 1007 1007 1007 1007 1007 1007 1007 1007 1007 1004 1004 1004 1001 998 998 995 993 990 987 984 984 984 984 984 984 984 984 984 984 984 984 984 984 984 984 984 984 987 987 987 987 990 990 990 990 993 993 993 993 993 993 993 993 995 995 995 995 995 995 998 998 998 998 1001 1001 1001 998 995 995 993 993 990 990 990 990 987 987 987 984 984 984 984 981 981 981 981 978 976 976 973 973 973 970 970 970 968 968 962 962 959 959 959 959 957 957 954 954 954 952 949 949 949 946 946 946 946 946 946 944 944 944 941 941 941 939 939 936 936 933 933 931 931 928 928 928 926 926 926 923 923 923 921 921 921 919 919 919 919 916 916 916 916 916 798 798 799 798 794 794 792 790 788 787 785 785 785 783 783 781 781 780 780 780 780 778 778 778 778 778 778 778 778 780 780 781 781 781 783 783 783 785 783 785 785 785 785 790 790 790 790 792 792 794 796 798 799 803 807 809 811 816 820 0 0 0 0 0 0 0 0 0 0 0 0 0 0 0 0 0 0 0 0 0 0 0 0 0 0 0 0 0 0 0 0 0 0 0 0 0 0 0 3390 3390 3390 3390 3390 3390 3423 3423 3390 3390 3390 3390 3423 3390 3423 3423 3423 3423 3423 3423 3390 3390 3390 3390 3390 3357 3357 3357 3390 3390 3390 3423 3423 3458 3458 3423 3423 3390 3390 3390 3423 3423 3423 3423 3458 3423 3423 3423 3423 3423 3423 3423 3423 3423 3390 3390 3390 3357 3357 3357 3357 3357 3357 3324 3293 3293 3293 3262 3231 3231 3201 3172 3172 3172 3143 3143 3143 3143 3143 3115 3115 3115 3087 3087 3059 3059 3033 3033
    0 0 0 0 0 0 0 0 0 0 0 0 0 0 0 0 0 0 0 0 0 0 0 0 0 0 0 0 0 0 0 0 0 0 0 0 0 0 0 0 0 0 0 0 0 0 0 0 0 0 0 0 0 0 0 0 1909 1909 1909 1909 1909 1920 1920 1920 0 0 2523 2523 2523 2523 2505 2487 2487 2487 2469 2469 2451 2451 2434 2434 2417 2417 2400 2384 2367 2351 2335 2320 2320 2304 2304 2304 2304 2304 2304 2320 2320 3143 3143 3172 3172 3172 3172 3172 3201 3201 3201 3201 3201 3172 3201 3201 3201 3201 3201 3201 3201 3201 3201 3201 3201 3201 3201 3201 3201 3201 3231 3231 3201 3201 3201 3201 3201 3201 3201 3201 3201 3201 3201 3172 3172 3172 3172 3172 3172 3172 3172 3172 3143 3172 3172 3172 1073 1073 1073 1069 1066 1066 1063 1063 1063 1063 1060 1060 1060 1056 1056 1053 1053 1053 1050 1050 1050 1050 1047 1050 1050 1050 1053 1056 1060 1060 1063 1063 1063 1063 1066 1066 1063 1063 1063 1066 1063 1063 1063 1063 1063 1063 1063 1063 1063 1063 1063 1060 1060 1060 1060 1060 1060 1056 1056 1056 1056 1056 1056 1053 1050 1050 1050 1047 1047 1047 1047 1047 1047 1050 1050 1050 1050 1047 1047 1047 1044 1044 1040 1040 1040 1040 1040 1037 1040 1037 1034 1034 1031 1025 1022 1022 1022 1022 1022 1022 1022 1022 1022 1019 1019 1019 1019 1019 1019 1019 1019 1019 1019 1019 1019 1019 1019 1019 1016 1016 1016 1013 1013 1013 1013 1013 1013 1010 1010 1010 1010 1010 1010 1010 1007 1007 1007 1007 1007 1007 1007 1007 1007 1007 1007 1007 1007 1007 1007 1007 1007 1007 1007 1007 1007 1007 1004 1004 1001 1001 1001 1001 998 995 995 990 990 984 984 984 984 984 984 984 984 981 984 981 981 981 984 984 984 984 984 984 984 984 984 987 987 987 990 990 990 990 993 993 993 993 993 993 993 995 995 995 995 995 995 998 998 998 1001 1001 1001 1001 998 995 993 993 990 990 990 987 987 987 984 984 984 984 984 981 981 981 981 978 976 976 973 973 973 970 970 968 968 965 962 962 959 959 957 957 957 954 954 954 954 949 949 949 946 946 946 946 946 944 944 941 944 941 941 939 939 939 936 933 933 933 931 928 928 928 928 926 926 926 923 923 923 921 921 919 919 919 919 916 916 916 916 914 914 911 909 799 799 799 796 794 792 790 790 788 787 787 785 785 783 783 781 781 781 781 781 780 780 780 778 778 778 780 780 780 781 781 783 783 785 783 785 783 783 785 785 785 787 790 790 790 790 792 792 794 796 798 799 803 807 809 811 813 816 820 820 820 0 0 0 0 0 0 0 0 0 0 0 0 0 0 0 0 0 0 0 0 0 0 0 0 0 0 0 0 0 0 0 0 0 0 0 0 3390 3390 3390 3390 3390 3390 3423 3423 3390 3390 3390 3390 3390 3390 3390 3390 3423 3423 3423 3423 3423 3423 3390 3390 3390 3357 3390 3390 3390 3390 3390 3423 3423 3423 3423 3423 3423 3390 3390 3390 3390 3390 3390 3423 3423 3423 3423 3423 3423 3458 3458 3423 3423 3390 3390 3390 3357 3357 3357 3357 3357 3357 3324 3324 3293 3293 3293 3262 3231 3201 3201 3172 3172 3172 3143 3143 3172 3172 3143 3115 3115 3115 3115 3087 3059 3059 3033 3033
    0 0 0 0 0 0 0 0 0 0 0 0 0 0 0 0 0 0 0 0 0 0 0 0 0 0 0 0 0 0 0 0 0 0 0 0 0 0 0 0 0 0 0 0 0 0 0 0 0 0 0 0 0 0 0 0 1920 1920 1920 1920 1920 1931 1931 1931 1975 2523 2523 2523 2523 2523 2505 2487 2487 2487 2469 2451 2451 2434 2417 2417 2417 2400 2384 2384 2351 2335 2335 2320 2320 2304 2304 2304 2304 2304 2304 2320 2320 3115 3143 3172 3172 3201 3172 3172 3172 3201 3201 3201 3201 3172 3172 3172 3172 3172 3201 3201 3201 3201 3201 3201 3201 3201 3201 3201 3201 3201 3231 3201 3201 3201 3201 3201 3201 3201 3201 3201 3201 3201 3201 3172 3172 3172 3172 3172 3172 3172 3172 3143 3143 3172 3201 3201 1069 1073 1069 1069 1066 1063 1060 1060 1060 1056 1056 1056 1056 1056 1056 1053 1053 1050 1050 1050 1047 1047 1047 1047 1047 1050 1050 1053 1056 1060 1060 1060 1063 1063 1063 1063 1063 1063 1063 1063 1063 1063 1063 1063 1063 1063 1063 1060 1060 1060 1060 1060 1056 1056 1056 1056 1056 1056 1056 1056 1056 1053 1053 1050 1050 1050 1047 1047 1047 1047 1047 1047 1047 1047 1047 1047 1047 1044 1044 1044 1044 1040 1040 1040 1037 1037 1037 1034 1034 1034 1031 1028 1025 1022 1019 1019 1019 1019 1019 1019 1019 1019 1019 1019 1019 1019 1019 1019 1019 1019 1019 1019 1019 1019 1019 1019 1016 1016 1013 1013 1013 1013 1010 1010 1013 1010 1010 1010 1010 1010 1010 1010 1010 1007 1007 1007 1007 1007 1007 1007 1007 1007 1007 1007 1007 1004 1004 1004 1004 1004 1004 1004 1004 1004 1007 1004 1001 1001 998 998 998 998 995 995 993 990 987 984 984 984 984 984 984 981 981 981 981 981 981 981 981 981 981 984 984 984 984 984 984 984 987 987 987 987 990 990 990 990 990 993 993 993 993 993 993 995 995 995 995 995 995 998 998 998 998 998 995 993 993 993 990 990 990 990 987 987 984 984 984 984 981 981 981 981 981 978 976 976 973 973 970 970 970 968 968 965 962 962 959 959 957 957 954 954 952 952 952 949 949 946 946 946 946 944 944 944 944 941 941 939 939 936 936 936 933 933 931 931 928 928 928 928 926 926 926 923 923 921 921 919 919 919 916 916 916 916 914 914 914 911 909 909 907 799 799 798 796 794 794 792 790 788 787 787 787 785 783 783 783 783 783 781 781 781 781 780 778 780 780 780 780 781 781 783 783 783 785 785 785 785 785 785 785 785 787 790 790 790 790 792 792 794 796 798 799 803 807 809 811 811 816 816 820 820 0 0 0 0 0 0 0 0 0 0 0 0 0 0 0 0 0 0 0 0 0 0 0 0 0 0 0 0 0 0 0 0 0 0 0 0 0 3390 3390 3390 3423 3423 3423 3423 3423 3390 3390 3390 3390 3390 3390 3390 3423 3423 3423 3423 3423 3423 3390 3390 3390 3390 3390 3390 3390 3390 3390 3423 3423 3423 3423 3423 3423 3390 3390 3390 3390 3390 3390 3423 3423 3423 3423 3423 3423 3423 3458 3423 3390 3390 3357 3357 3357 3357 3324 3357 3357 3357 3357 3324 3324 3293 3293 3262 3231 3231 3201 3172 3172 3172 3172 3172 3172 3172 3143 3143 3115 3115 3115 3087 3059 3059 3033 3033
    0 0 0 0 0 0 0 0 0 0 0 0 0 0 0 0 0 0 0 0 0 0 0 0 0 0 0 0 0 0 0 0 0 0 0 0 0 0 0 0 0 0 0 0 0 0 0 0 0 0 0 0 0 0 0 1931 1931 1920 1920 1931 1931 1941 1952 1975 1975 2523 2523 2523 2523 2523 2505 2487 2487 2469 2469 2451 2451 2417 2417 2400 2400 2400 2384 2367 2351 2335 2335 2320 2320 2304 2320 2304 2304 2304 2304 2320 3172 3172 3172 3172 3201 3201 3172 3201 3201 3201 3201 3201 3201 3172 3172 3172 3172 3172 3172 3201 3201 3201 3201 3201 3201 3201 3201 3201 3201 3201 3201 3201 3201 3201 3201 3201 3201 3201 3201 3201 3201 3201 3172 3143 3172 3172 3172 3172 3172 3143 3143 3143 3143 3143 3172 3172 1063 1063 1063 1060 1060 1056 1056 1056 1053 1053 1053 1053 1056 1053 1056 1053 1053 1050 1050 1047 1047 1047 1047 1047 1047 1047 1050 1053 1056 1056 1060 1060 1060 1060 1060 1060 1060 1060 1060 1063 1060 1060 1060 1060 1060 1060 1060 1060 1060 1060 1060 1056 1056 1053 1053 1053 1053 1053 1053 1053 1053 1050 1050 1050 1047 1047 1044 1044 1044 1044 1044 1044 1047 1047 1047 1047 1047 1044 1044 1044 1040 1040 1037 1037 1037 1037 1034 1034 1034 1031 1025 1022 1019 1019 1019 1019 1019 1019 1019 1019 1019 1019 1019 1019 1019 1019 1019 1019 1019 1019 1019 1019 1019 1019 1019 1019 1016 1016 1013 1013 1010 1013 1010 1010 1010 1010 1010 1010 1007 1007 1007 1007 1007 1007 1007 1007 1007 1007 1007 1007 1007 1007 1007 1007 1007 1004 1004 1004 1004 1004 1001 1001 1004 1004 1004 1001 998 998 998 995 995 995 993 993 990 987 987 984 981 981 981 981 981 978 978 978 978 978 978 978 981 981 981 981 981 984 984 984 984 984 984 984 984 987 987 987 990 990 990 990 990 993 993 993 993 993 995 995 995 995 995 995 998 998 998 998 995 993 993 990 990 990 987 987 987 984 984 984 984 981 981 981 981 981 978 978 976 973 973 973 970 970 968 968 965 962 959 959 959 957 954 954 954 952 952 952 952 949 946 946 946 944 944 944 944 941 941 939 939 939 936 936 936 933 931 931 928 928 928 928 926 926 926 923 923 923 921 919 919 919 916 916 916 916 914 914 914 911 911 909 907 907 907 798 799 798 796 796 794 792 792 790 790 788 787 785 785 785 783 783 783 783 783 781 783 781 781 781 781 781 781 783 781 783 783 783 785 785 785 785 785 785 785 785 787 790 790 790 790 792 792 794 796 798 801 803 807 809 811 811 813 815 815 818 0 0 0 0 0 0 0 0 0 0 0 0 0 0 0 0 0 0 0 0 0 0 0 0 0 0 0 0 0 0 0 0 0 0 0 0 0 3390 3390 3390 3423 3423 3423 3423 3423 3390 3390 3390 3390 3390 3390 3390 3423 3423 3423 3423 3423 3423 3423 3423 3390 3390 3390 3390 3390 3390 3390 3423 3423 3458 3458 3458 3458 3390 3390 3390 3390 3390 3390 3423 3423 3423 3423 3423 3423 3423 3458 3390 3390 3357 3357 3357 3357 3324 3324 3357 3357 3357 3324 3324 3293 3293 3262 3262 3231 3231 3231 3201 3201 3201 3172 3172 3201 3201 3172 3143 3143 3115 3115 3115 3087 3059 3033 3033
    0 0 0 0 0 0 0 0 0 0 0 0 0 0 0 0 0 0 0 0 0 0 0 0 0 0 0 0 0 0 0 0 0 0 0 0 0 0 0 0 0 0 0 0 0 0 0 0 0 0 0 0 0 0 0 1931 1931 1931 1920 1931 1941 1952 1952 1986 2505 2505 2523 2523 2523 2523 2505 2505 2487 2469 2451 2451 2434 2417 2400 2400 2400 2384 2367 2351 2351 2335 2320 2320 2320 2304 2320 2304 2304 2304 2289 2304 3143 3143 3172 3172 3172 3201 3201 3201 3201 3201 3201 3201 3201 3172 3172 3172 3172 3172 3172 3172 3201 3201 3201 3201 3201 3201 3201 3231 3201 3201 3201 3201 3201 3201 3201 3201 3201 3201 3201 3201 3201 3201 3201 3172 3172 3172 3172 3172 3172 3143 3143 3143 3143 3143 3143 3143 1056 1056 1056 1053 1053 1053 1053 1050 1050 1050 1050 1053 1053 1053 1053 1053 1050 1050 1047 1047 1044 1044 1044 1044 1047 1047 1050 1050 1056 1056 1056 1060 1060 1060 1060 1060 1060 1060 1060 1060 1060 1060 1060 1060 1060 1060 1056 1056 1056 1056 1056 1053 1050 1050 1050 1050 1050 1050 1050 1050 1050 1050 1050 1047 1047 1044 1044 1044 1040 1040 1040 1044 1044 1044 1044 1044 1044 1040 1040 1040 1037 1037 1037 1034 1034 1034 1034 1031 1028 1022 1019 1019 1016 1016 1016 1016 1016 1016 1016 1016 1016 1016 1016 1019 1016 1016 1016 1016 1016 1016 1016 1016 1016 1016 1016 1016 1013 1013 1013 1010 1010 1010 1010 1010 1010 1010 1010 1010 1007 1007 1007 1007 1004 1004 1004 1004 1004 1004 1004 1004 1004 1004 1004 1004 1001 1001 1001 1001 1001 1001 1001 1001 1001 1001 1001 998 998 995 995 995 995 993 993 990 990 987 987 981 981 981 981 981 978 976 976 976 976 976 976 978 978 981 981 981 981 981 981 984 981 984 984 984 984 984 984 987 990 990 990 990 990 990 993 993 993 993 993 993 995 995 995 995 995 995 995 995 993 993 993 990 990 987 987 987 987 984 984 984 984 981 981 981 981 981 978 978 973 973 973 970 970 968 968 968 962 962 959 959 957 957 954 954 952 952 952 952 952 946 946 946 946 944 944 941 941 939 939 939 939 936 936 933 933 933 931 928 928 928 926 926 926 923 923 923 921 921 919 919 919 916 916 916 914 914 914 911 911 909 909 907 904 904 904 902 798 798 796 796 796 794 794 792 790 790 790 787 785 785 785 785 785 783 783 783 781 781 781 783 783 783 783 783 783 783 783 785 785 787 785 785 785 785 788 788 788 790 790 790 790 792 792 794 796 798 801 803 805 809 811 811 813 815 815 816 815 0 0 0 0 0 0 0 0 0 0 0 0 0 0 0 0 0 0 0 0 0 0 0 0 0 0 0 0 0 0 0 0 0 0 0 0 3423 3423 3390 3390 3423 3423 3423 3390 3390 3390 3390 3390 3390 3390 3390 3390 3423 3423 3423 3423 3390 3423 3423 3390 3390 3390 3390 3390 3423 3423 3423 3423 3458 3458 3493 3493 3390 3390 3390 3390 3390 3390 3423 3423 3423 3423 3423 3423 3423 3458 3390 3357 3357 3357 3324 3324 3293 3324 3324 3324 3324 3293 3293 3293 3293 3262 3262 3231 3231 3231 3201 3201 3201 3172 3172 3201 3201 3172 3143 3143 3115 3115 3087 3059 3059 3033 3033
    0 0 0 0 0 0 0 0 0 0 0 0 0 0 0 0 0 0 0 0 0 0 0 0 0 0 0 0 0 0 0 0 0 0 0 0 0 0 0 0 0 0 0 0 0 0 0 0 0 0 0 0 0 0 0 1931 1931 1931 1931 1941 1941 1952 1964 1986 2523 2523 2523 2542 2523 2523 2505 2487 2469 2469 2451 2451 2434 2417 2400 2400 2400 2384 2367 2351 2335 2320 2320 2320 2320 2304 2320 2304 2304 2304 2274 2274 3143 3143 3172 3172 3201 3201 3201 3201 3201 3201 3201 3201 3201 3172 3172 3172 3172 3172 3172 3172 3172 3201 3201 3201 3201 3201 3201 3201 3201 3201 3201 3201 3201 3201 3201 3201 3201 3201 3201 3201 3201 3201 3201 3172 3172 3172 3172 3172 3172 3172 3143 3143 3115 3115 3143 1050 1053 1053 1053 1053 1050 1050 1050 1050 1050 1050 1050 1050 1050 1050 1050 1050 1050 1047 1047 1044 1040 1040 1040 1040 1044 1044 1047 1047 1050 1053 1056 1056 1056 1056 1056 1056 1056 1056 1060 1060 1056 1060 1056 1056 1056 1056 1056 1056 1053 1053 1050 1050 1050 1050 1050 1050 1050 1050 1050 1050 1050 1047 1047 1044 1044 1040 1040 1040 1037 1037 1040 1040 1040 1044 1044 1044 1044 1040 1037 1037 1037 1037 1034 1034 1034 1031 1031 1028 1025 1019 1016 1016 1013 1013 1013 1013 1013 1016 1016 1013 1016 1016 1016 1016 1016 1016 1016 1016 1016 1016 1016 1013 1013 1013 1013 1013 1013 1013 1010 1010 1010 1010 1007 1007 1007 1007 1007 1007 1007 1007 1007 1004 1004 1001 1004 1001 1001 1001 1001 1001 1001 998 998 998 998 998 998 998 998 998 998 998 998 998 998 995 995 995 993 993 993 990 990 987 987 987 984 981 981 981 978 978 976 973 973 973 973 973 976 976 978 978 981 981 981 981 981 981 981 981 984 984 984 984 984 984 987 987 987 990 990 990 990 990 993 993 993 993 995 995 995 995 995 995 995 995 993 993 993 990 990 987 987 987 984 984 984 984 981 981 981 981 981 981 978 976 973 973 973 970 968 968 968 965 962 962 959 959 957 954 954 952 952 952 952 952 949 946 946 946 944 941 941 939 939 939 939 936 936 936 933 933 933 931 928 928 926 926 923 923 923 921 921 921 919 919 919 916 916 916 914 914 914 914 911 911 909 909 907 907 904 904 902 902 899 794 794 796 796 796 794 792 792 792 790 788 787 785 785 785 785 785 783 783 783 783 783 783 783 783 783 783 783 785 785 785 785 785 785 785 785 785 790 790 790 790 792 790 792 792 794 796 796 798 801 803 805 809 811 811 813 815 815 816 816 0 0 0 0 0 0 0 0 0 0 0 0 0 0 0 0 0 0 0 0 0 0 0 0 0 0 0 0 0 0 0 0 0 0 0 0 0 3423 3390 3390 3390 3390 3390 3390 3390 3390 3390 3390 3390 3390 3390 3423 3423 3423 3423 3423 3390 3423 3423 3390 3390 3390 3390 3390 3423 3423 3423 3423 3423 3458 3493 3493 3423 3423 3423 3423 3390 3423 3423 3423 3423 3423 3390 3423 3423 3423 3390 3357 3324 3324 3293 3293 3293 3293 3324 3293 3293 3293 3293 3262 3262 3262 3231 3231 3201 3201 3172 3172 3172 3172 3172 3172 3172 3172 3143 3143 3115 3115 3087 3059 3059 3033 3006
    0 0 0 0 0 0 0 0 0 0 0 0 0 0 0 0 0 0 0 0 0 0 0 0 0 0 0 0 0 0 0 0 0 0 0 0 0 0 0 0 0 0 0 0 0 0 0 0 0 0 0 0 0 0 0 0 1931 1931 1920 1931 1931 1952 1998 1998 2523 2523 2542 2542 2523 2523 2505 2505 2469 2451 2451 2434 2434 2417 2400 2400 2384 2384 2367 2351 2335 2320 2320 2320 2320 2304 2320 2304 2304 2304 2304 2304 3143 3143 3172 3172 3201 3201 3201 3201 3201 3201 3201 3201 3201 3172 3172 3172 3172 3172 3172 3172 3172 3172 3172 3201 3201 3201 3201 3201 3201 3201 3201 3201 3201 3201 3201 3201 3201 3201 3201 3201 3201 3201 3201 3172 3172 3172 3172 3172 3172 3172 3143 3115 3115 3115 1050 1050 1050 1050 1050 1050 1050 1050 1050 1050 1047 1047 1050 1050 1050 1050 1050 1047 1047 1044 1044 1040 1040 1040 1040 1040 1040 1040 1044 1044 1050 1050 1053 1053 1053 1053 1053 1053 1053 1053 1053 1053 1053 1056 1056 1056 1053 1056 1053 1053 1050 1050 1047 1047 1047 1047 1047 1047 1050 1047 1050 1050 1047 1047 1047 1044 1040 1040 1037 1037 1037 1037 1037 1037 1040 1040 1040 1040 1040 1037 1034 1034 1034 1034 1034 1034 1031 1031 1028 1025 1019 1016 1013 1013 1013 1010 1013 1010 1013 1013 1013 1013 1013 1013 1013 1016 1016 1013 1016 1013 1013 1013 1013 1013 1013 1013 1013 1013 1010 1010 1010 1007 1007 1007 1007 1007 1007 1007 1007 1007 1004 1004 1004 1004 1001 998 1001 1001 998 998 998 998 998 995 995 998 995 995 995 995 995 998 995 995 995 998 995 995 995 993 993 990 993 990 990 987 987 987 984 981 978 978 976 976 973 973 973 973 973 973 973 973 976 978 978 978 978 981 981 981 981 981 981 984 984 984 984 984 984 987 987 987 987 987 990 990 993 993 993 993 995 995 995 995 995 995 995 995 993 993 993 990 990 987 987 984 984 984 984 984 984 981 981 981 981 981 978 973 973 970 970 968 968 968 965 965 962 962 959 959 957 954 954 952 952 952 952 952 949 946 944 944 941 939 939 939 939 936 936 936 936 933 931 931 928 928 926 926 926 923 921 921 921 921 919 919 919 916 916 914 914 914 911 911 911 911 909 909 909 907 904 904 902 902 902 899 899 798 796 798 798 798 796 794 794 792 792 788 788 787 787 785 785 785 783 785 783 783 785 783 783 785 783 785 785 785 785 787 785 785 785 785 785 785 790 790 790 792 792 790 792 794 794 796 796 798 801 803 805 807 809 811 813 815 815 818 816 0 0 0 0 0 0 0 0 0 0 0 0 0 0 0 0 0 0 0 0 0 0 0 0 0 0 0 0 0 0 0 0 0 0 0 0 0 0 3390 3390 3390 3390 3390 3390 3390 3390 3390 3390 3390 3390 3390 3390 3423 3423 3423 3423 3390 3423 3423 3423 3390 3390 3390 3390 3423 3423 3423 3423 3458 3458 3458 3493 3423 3423 3390 3390 3390 3390 3423 3423 3423 3390 3390 3423 3423 3390 3357 3324 3293 3293 3293 3293 3293 3293 3324 3293 3324 3293 3293 3293 3293 3262 3231 3201 3172 3201 3172 3172 3172 3143 3143 3172 3172 3172 3143 3143 3115 3115 3115 3059 3059 3033 3033
    0 0 0 0 0 0 0 0 0 0 0 0 0 0 0 0 0 0 0 0 0 0 0 0 0 0 0 0 0 0 0 0 0 0 0 0 0 0 0 0 0 0 0 0 0 0 0 0 0 0 0 0 0 0 0 0 1931 1920 1920 1931 1931 1952 2523 2523 2542 2523 2542 2542 2523 2523 2505 2487 2469 2451 2451 2434 2434 2400 2400 2400 2384 2384 2351 2351 2335 2320 2320 2320 2320 2304 2320 2304 2304 2304 2304 2304 2304 2304 3172 3172 3172 3201 3201 3201 3172 3201 3201 3201 3201 3172 3172 3172 3172 3172 3172 3172 3172 3172 3172 3172 3172 3201 3201 3201 3172 3201 3201 3201 3201 3201 3201 3201 3201 3201 3201 3201 3201 3201 3201 3172 3172 3172 3172 3172 3172 3172 3143 3115 1050 1050 1050 1050 1050 1050 1047 1050 1047 1047 1047 1047 1047 1047 1047 1047 1050 1047 1047 1047 1044 1040 1040 1040 1037 1037 1037 1037 1037 1040 1040 1040 1047 1047 1050 1050 1050 1050 1050 1053 1053 1053 1053 1053 1050 1053 1053 1053 1050 1050 1050 1050 1047 1047 1044 1047 1047 1047 1047 1047 1047 1047 1047 1047 1047 1047 1044 1040 1037 1037 1037 1037 1037 1037 1037 1037 1037 1037 1037 1040 1037 1034 1034 1034 1034 1034 1031 1031 1031 1028 1022 1019 1016 1013 1013 1013 1010 1010 1010 1010 1010 1010 1010 1010 1010 1013 1013 1013 1013 1013 1013 1013 1013 1010 1010 1010 1010 1010 1010 1010 1010 1007 1007 1007 1007 1007 1004 1004 1004 1004 1004 1004 1004 1004 1004 1001 998 998 998 998 995 995 995 995 995 993 995 995 995 995 995 995 995 995 995 995 995 995 995 995 993 993 990 990 990 987 987 984 984 984 984 978 976 976 973 973 973 973 970 970 973 973 973 973 976 976 976 978 978 978 981 981 981 981 981 981 981 981 984 984 984 984 984 987 987 987 990 990 990 993 993 993 993 995 995 995 995 995 995 995 993 993 993 990 990 990 987 987 984 984 984 984 981 981 981 981 981 981 976 973 970 970 970 968 965 965 965 962 962 959 959 957 954 954 954 952 952 952 952 949 949 946 944 944 941 941 939 939 939 936 936 936 933 931 931 928 928 928 926 926 923 921 921 919 919 919 919 916 916 914 914 911 911 911 911 911 909 909 909 909 907 904 902 902 899 899 899 899 899 899 879 799 799 799 798 796 796 794 794 790 790 788 787 787 787 787 785 785 785 785 783 783 783 783 783 787 787 785 785 787 787 788 788 785 788 790 790 792 792 792 792 790 792 792 794 794 796 798 801 803 805 807 809 811 813 813 813 816 0 0 0 0 0 0 0 0 0 0 0 0 0 0 0 0 0 0 0 0 0 0 0 0 0 0 0 0 0 0 0 0 0 0 0 0 0 0 0 3390 3390 3390 3390 3390 3390 3390 3390 3390 3390 3390 3390 3390 3390 3390 3390 3390 3390 3390 3423 3423 3423 3390 3423 3423 3390 3423 3423 3423 3423 3458 3458 3493 3493 3423 3423 3423 3423 3423 3423 3423 3423 3423 3390 3390 3423 3423 3390 3357 3324 3293 3293 3293 3293 3293 3390 3324 3357 3324 3293 3293 3293 3293 3262 3231 3201 3172 3172 3172 3172 3172 3143 3143 3172 3172 3172 3143 3143 3143 3143 3115 3087 3059 3033 3033
    0 0 0 0 0 0 0 0 0 0 0 0 0 0 0 0 0 0 0 0 0 0 0 0 0 0 0 0 0 0 0 0 0 0 0 0 0 0 0 0 0 0 0 0 0 0 0 0 0 0 0 0 0 0 0 0 1920 1920 1909 1920 1931 1931 2523 2523 2523 2542 2542 2523 2523 2523 2505 2487 2469 2451 2434 2434 2417 2400 2400 2400 2384 2384 2367 2351 2335 2320 2304 2304 2304 2304 2304 2304 2304 2304 2304 2274 2274 2289 2289 2320 3201 3201 3201 3201 3201 3201 3201 3201 3201 3201 3172 3172 3172 3172 3172 3172 3172 3172 3172 3172 3201 3201 3201 3201 3172 3172 3201 3201 3201 3201 3201 3201 3201 3201 3201 3201 3201 3201 3201 3172 3172 3172 3172 3172 3172 3172 3143 3087 1050 1050 1050 1050 1047 1047 1047 1047 1047 1047 1047 1044 1044 1044 1047 1047 1047 1044 1044 1044 1040 1040 1040 1037 1037 1037 1037 1037 1037 1037 1037 1037 1044 1044 1047 1050 1050 1050 1050 1050 1050 1050 1050 1050 1050 1050 1050 1050 1050 1050 1047 1047 1047 1047 1044 1044 1047 1047 1047 1047 1047 1047 1047 1047 1047 1044 1040 1037 1037 1037 1037 1037 1034 1037 1037 1037 1037 1037 1037 1037 1037 1034 1031 1031 1031 1031 1031 1028 1028 1025 1019 1013 1013 1013 1010 1010 1010 1010 1010 1010 1010 1010 1010 1010 1010 1010 1010 1010 1010 1010 1013 1010 1010 1010 1010 1010 1010 1007 1007 1007 1007 1007 1004 1004 1004 1001 1001 1001 1001 1001 1001 1001 1001 1001 1001 998 998 998 998 995 995 995 993 993 993 993 995 995 995 993 995 993 993 995 993 993 993 995 993 993 993 990 987 987 987 984 984 981 981 984 981 976 973 973 970 970 970 970 970 970 970 973 973 973 973 976 976 976 978 978 981 981 981 981 981 981 981 981 981 984 984 984 984 984 987 987 990 987 990 993 993 993 995 995 995 998 995 995 995 995 993 993 993 993 990 990 987 987 984 984 984 984 981 981 981 981 981 978 976 973 970 970 970 968 965 965 965 962 962 959 959 957 957 954 954 952 952 952 949 949 949 946 944 944 941 939 939 939 936 936 936 933 933 931 928 928 928 926 926 923 923 921 919 919 919 919 916 916 914 911 911 911 909 909 909 909 909 909 907 907 907 904 902 902 899 899 899 899 899 897 879 801 801 801 799 798 798 796 794 792 790 790 788 788 787 787 785 785 785 785 785 783 783 783 783 787 787 787 787 788 788 788 790 788 790 790 790 792 792 792 792 790 790 792 792 794 796 798 799 801 803 805 809 811 813 813 813 818 0 0 0 0 0 0 0 0 0 0 0 0 0 0 0 0 0 0 0 0 0 0 0 0 0 0 0 0 0 0 0 0 0 0 0 0 0 0 0 0 3357 3357 3390 3390 3390 3390 3390 3390 3390 3390 3390 3390 3390 3390 3390 3390 3390 3390 3423 3423 3423 3390 3423 3423 3423 3423 3423 3423 3423 3458 3458 3493 3493 3458 3423 3423 3423 3423 3423 3423 3423 3423 3390 3390 3423 3390 3390 3357 3357 3324 3324 3293 3390 3390 3390 3390 3390 3324 3324 3293 3293 3262 3262 3231 3201 3172 3201 3172 3172 3143 3143 3143 3172 3172 3172 3143 3143 3143 3143 3115 3087 3033 3033 3006
    0 0 0 0 0 0 0 0 0 0 0 0 0 0 0 0 0 0 0 0 0 0 0 0 0 0 0 0 0 0 0 0 0 0 0 0 0 0 0 0 0 0 0 0 0 0 0 0 0 0 0 0 0 0 0 1931 1931 1920 1920 1931 1931 1931 2523 2523 2523 2542 2523 2523 2523 2505 2487 2487 2469 2451 2434 2417 2400 2400 2384 2400 2384 2384 2367 2351 2335 2320 2304 2304 2304 2304 2304 2289 2274 2304 2289 2274 2274 2289 2274 2304 2320 3262 3201 3201 3201 3201 3201 3172 3201 3172 3172 3172 3172 3172 3172 3172 3172 3172 3172 3172 3172 3172 3201 3201 3172 3172 3172 3201 3201 3201 3201 3201 3201 3201 3201 3201 3201 3201 3201 3172 3172 3172 3172 3172 3172 3172 1053 1050 1050 1050 1047 1047 1047 1044 1044 1044 1044 1044 1044 1044 1040 1044 1044 1044 1044 1044 1040 1040 1037 1037 1037 1037 1037 1037 1037 1034 1037 1037 1037 1037 1040 1040 1044 1047 1047 1047 1050 1050 1050 1050 1050 1050 1050 1050 1047 1047 1047 1047 1047 1044 1044 1044 1044 1044 1047 1047 1047 1047 1047 1047 1047 1047 1044 1040 1040 1037 1034 1037 1034 1034 1034 1034 1034 1034 1034 1034 1037 1037 1034 1031 1031 1031 1031 1031 1028 1028 1025 1019 1013 1010 1010 1010 1010 1010 1010 1010 1010 1010 1010 1010 1007 1010 1010 1010 1010 1010 1010 1010 1010 1010 1010 1007 1007 1007 1007 1007 1007 1007 1004 1004 1001 1001 1001 998 998 998 998 1001 1001 1001 998 1001 998 998 995 995 995 995 993 993 990 993 990 990 993 993 993 993 993 993 993 993 993 993 993 993 993 993 990 987 984 984 984 984 981 978 978 981 976 973 973 970 970 970 968 970 970 970 970 970 973 973 973 973 976 976 976 976 978 978 981 981 981 981 981 981 981 981 981 984 984 984 984 984 987 987 990 993 993 993 993 995 995 995 995 995 995 995 995 993 993 993 993 990 987 987 984 984 981 981 981 981 981 981 978 978 976 973 970 968 968 968 965 965 962 962 962 959 959 957 954 954 954 952 952 952 949 949 949 946 944 944 941 939 939 939 936 936 933 933 933 931 928 928 928 926 926 923 921 921 919 919 919 919 916 914 914 911 911 911 909 909 909 909 909 909 907 907 904 904 902 899 899 899 899 899 899 897 886 886 801 801 801 799 799 796 796 794 792 792 790 790 788 788 785 787 785 785 785 785 787 787 785 788 788 788 787 788 788 788 790 790 790 790 792 792 792 792 792 790 792 792 794 794 796 798 799 801 803 807 809 813 813 815 816 820 0 0 0 0 0 0 0 0 0 0 0 0 0 0 0 0 0 0 0 0 0 0 0 0 0 0 0 0 0 0 0 0 0 0 0 0 0 0 0 0 3390 3390 3390 3390 3390 3390 3390 3390 3390 3423 3390 3390 3390 3390 3390 3390 3390 3390 3423 3423 3423 3390 3423 3390 3390 3423 3423 3423 3423 3458 3458 3458 3493 3423 3423 3423 3423 3423 3423 3423 3423 3423 3390 3390 3390 3390 3390 3357 3357 3324 3324 3324 3390 3390 3390 3357 3390 3357 3324 3293 3262 3262 3231 3201 3201 3172 3172 3172 3172 3172 3143 3143 3143 3172 3143 3143 3115 3115 3115 3087 3059 3033 3006 3006
    0 0 0 0 0 0 0 0 0 0 0 0 0 0 0 0 0 0 0 0 0 0 0 0 0 0 0 0 0 0 0 0 0 0 0 0 0 0 0 0 0 0 0 0 0 0 0 0 0 0 0 0 0 0 0 1920 1920 1920 1920 1920 1920 2523 2523 2523 2523 2542 2523 2523 2523 2505 2487 2487 2469 2451 2434 2417 2400 2400 2400 2384 2384 2384 2367 2351 2320 2320 2289 2289 2289 2289 2274 2259 2274 2289 2289 2289 2289 2289 2289 2289 2289 2244 3201 3201 3172 3201 3201 3172 3172 3172 3172 3172 3172 3172 3172 3172 3172 3172 3172 3172 3172 3172 3172 3172 3172 3172 3172 3172 3172 3201 3201 3201 3201 3201 3201 3201 3201 3201 3201 3172 3172 3172 3172 3172 3172 3172 1050 1050 1050 1047 1044 1044 1044 1040 1040 1040 1040 1040 1040 1040 1037 1040 1040 1040 1040 1037 1037 1037 1037 1037 1037 1037 1037 1037 1034 1034 1034 1034 1034 1034 1037 1037 1040 1044 1047 1047 1047 1050 1047 1047 1047 1047 1047 1047 1047 1047 1047 1047 1044 1044 1044 1044 1040 1044 1044 1047 1047 1047 1047 1047 1047 1044 1044 1040 1037 1037 1034 1034 1034 1034 1034 1034 1034 1034 1034 1034 1034 1034 1034 1031 1028 1028 1028 1028 1025 1019 1013 1010 1010 1010 1007 1007 1007 1007 1007 1010 1010 1010 1010 1010 1007 1007 1010 1007 1007 1007 1007 1007 1010 1007 1007 1007 1007 1007 1007 1004 1004 1001 1001 998 998 998 998 998 998 998 998 998 998 998 998 998 998 995 995 995 993 993 993 993 990 990 990 990 993 993 993 993 993 990 990 993 990 990 990 990 990 990 987 978 981 981 981 981 978 976 976 976 976 970 970 970 968 968 968 968 968 968 970 970 970 973 973 973 973 976 976 976 978 978 978 978 981 981 981 981 981 981 981 981 981 984 984 984 987 987 990 990 993 993 995 995 995 995 995 995 995 995 995 993 993 993 993 990 987 987 984 984 981 981 981 981 981 981 978 978 976 973 970 968 968 965 965 965 962 962 962 959 959 957 957 954 954 952 952 952 949 949 949 944 941 941 941 939 939 936 936 933 933 931 931 928 928 928 926 926 926 923 923 921 919 919 919 916 916 914 911 909 909 909 909 909 907 907 907 907 907 904 904 902 902 899 899 899 899 897 897 897 886 886 803 801 801 799 799 798 798 794 794 792 792 790 790 788 787 788 788 788 788 785 788 788 785 788 790 788 788 790 790 790 790 790 792 792 792 792 792 792 794 792 792 792 794 796 798 798 799 801 805 807 811 813 815 816 818 820 822 828 0 0 0 0 0 0 0 0 0 0 0 0 0 0 0 0 0 0 0 0 0 0 0 0 0 0 0 0 0 0 0 0 0 0 0 0 0 0 0 3390 3390 3390 3390 3423 3390 3423 3423 3423 3390 3390 3390 3390 3390 3390 3390 3390 3423 3423 3423 3390 3423 3423 3423 3423 3423 3423 3423 3458 3458 3458 3458 3423 3423 3423 3423 3423 3423 3423 3423 3423 3390 3390 3390 3390 3390 3357 3357 3324 3324 3357 3357 3357 3390 3357 3293 3324 3293 3293 3262 3231 3231 3231 3172 3143 3172 3143 3172 3172 3143 3143 3143 3143 3143 3143 3115 3087 3115 3087 3087 3033 3006 3006
    0 0 0 0 0 0 0 0 0 0 0 0 0 0 0 0 0 0 0 0 0 0 0 0 0 0 0 0 0 0 0 0 0 0 0 0 0 0 0 0 0 0 0 0 0 0 0 0 0 0 0 0 0 0 0 0 0 1899 1909 1909 1909 1838 2523 2523 2523 2523 2523 2523 2523 2505 2487 2469 2451 2451 2434 2417 2400 2400 2400 2400 2384 2384 2367 2351 2335 2320 2304 2274 2289 2304 2274 2259 2274 2289 2289 2289 2289 2289 2274 2289 2289 2289 3172 3172 3172 3172 3172 3172 3172 3172 3172 3172 3172 3172 3172 3172 3172 3172 3172 3172 3172 3172 3172 3172 3172 3172 3172 3201 3201 3201 3201 3201 3201 3201 3201 3201 3201 3201 3201 3172 3172 3172 3172 3172 3172 1050 1047 1047 1047 1047 1044 1040 1040 1037 1037 1037 1037 1037 1037 1037 1037 1037 1037 1037 1037 1037 1034 1037 1034 1034 1034 1034 1034 1034 1034 1034 1034 1034 1034 1034 1034 1034 1037 1040 1044 1047 1047 1047 1047 1047 1047 1047 1047 1047 1044 1044 1044 1044 1040 1040 1040 1040 1040 1044 1044 1044 1047 1047 1047 1047 1047 1044 1040 1037 1037 1034 1034 1034 1034 1031 1034 1034 1034 1034 1034 1031 1034 1034 1034 1031 1028 1028 1025 1022 1019 1013 1010 1010 1010 1007 1007 1007 1007 1007 1007 1007 1007 1007 1007 1007 1007 1007 1007 1007 1007 1007 1007 1007 1007 1007 1007 1007 1007 1007 1004 1004 1001 998 998 995 998 995 995 995 995 995 995 998 998 998 995 998 995 995 993 993 990 990 990 990 990 990 990 990 990 990 990 990 990 990 990 990 990 990 987 987 987 987 984 978 978 978 978 976 976 976 976 973 973 968 968 968 968 965 965 968 968 968 968 970 970 973 973 973 973 973 976 976 976 978 978 978 978 981 981 981 981 981 981 981 981 981 984 984 987 987 990 990 993 993 993 995 995 995 995 995 995 995 995 993 993 993 993 990 990 987 984 984 981 981 981 981 981 981 978 978 973 973 970 968 968 968 965 965 962 962 962 959 959 959 957 954 954 952 952 952 949 949 946 944 941 941 941 939 939 936 936 933 933 931 931 928 928 928 926 926 923 923 921 919 919 916 916 916 914 911 911 909 909 909 909 907 907 907 907 907 904 904 902 902 899 899 897 897 897 897 897 897 888 888 888 805 803 801 799 798 798 796 794 792 792 790 790 790 788 788 788 788 788 788 788 788 788 788 790 790 790 790 790 790 790 790 792 790 790 792 792 792 794 792 794 794 796 796 798 799 801 801 805 807 811 813 815 816 818 820 822 828 834 836 838 0 0 0 0 0 0 0 0 0 0 0 0 0 0 0 0 0 0 0 0 0 0 0 0 0 0 0 0 0 0 0 0 0 0 0 0 3390 3390 3390 3390 3390 3390 3423 3423 3423 3390 3390 3390 3390 3390 3390 3390 3390 3390 3423 3423 3390 3423 3423 3423 3423 3423 3423 3423 3423 3423 3423 3423 3390 3390 3423 3423 3423 3423 3423 3423 3423 3390 3390 3390 3390 3390 3357 3357 3357 3390 3357 3390 3390 3390 3357 3390 3357 3324 3324 3262 3231 3231 3231 3172 3143 3143 3143 3143 3143 3143 3143 3143 3143 3115 3115 3115 3087 3087 3059 3059 3033 3033 3006
    0 0 0 0 0 0 0 0 0 0 0 0 0 0 0 0 0 0 0 0 0 0 0 0 0 0 0 0 0 0 0 0 0 0 0 0 0 0 0 0 0 0 0 0 0 0 0 0 0 0 0 0 0 0 0 0 0 0 1920 1909 1848 1838 1838 2523 2523 2523 2523 2505 2505 2487 2469 2469 2451 2451 2434 2417 2400 2400 2400 2384 2384 2384 2367 2335 2320 2304 2289 2289 2274 2289 2289 2274 2289 2304 2320 2304 2289 2289 2289 2289 2289 0 3172 3172 3172 3172 3172 3172 3172 3172 3172 3172 3172 3172 3172 3172 3172 3172 3172 3172 3172 3172 3172 3172 3172 3172 3172 3172 3172 3201 3201 3201 3201 3201 3201 3201 3201 3201 3201 3172 3172 3172 3172 3172 3201 1047 1044 1047 1044 1040 1040 1037 1037 1037 1037 1034 1034 1034 1034 1034 1034 1034 1034 1034 1037 1034 1034 1034 1034 1034 1034 1034 1034 1034 1034 1031 1031 1031 1031 1031 1031 1034 1037 1037 1040 1044 1047 1047 1047 1047 1047 1047 1047 1044 1044 1044 1040 1040 1040 1037 1037 1040 1040 1040 1044 1044 1044 1047 1047 1044 1044 1040 1037 1037 1034 1034 1031 1031 1031 1031 1031 1031 1031 1031 1031 1031 1031 1031 1028 1028 1022 1022 1019 1016 1013 1010 1010 1010 1007 1007 1007 1007 1007 1007 1007 1007 1007 1007 1007 1007 1007 1007 1007 1007 1004 1004 1004 1004 1004 1007 1004 1004 1004 1004 1004 1001 998 998 995 995 995 995 995 995 995 995 995 995 995 998 995 995 995 993 990 987 987 987 987 987 987 987 987 987 990 990 987 987 987 987 987 987 987 987 987 987 987 984 978 978 978 976 976 976 973 973 973 970 970 965 965 965 965 965 965 968 968 968 968 970 970 970 973 973 973 973 976 976 976 976 976 978 978 978 978 978 981 981 981 981 981 981 984 984 987 987 990 990 993 993 993 995 995 995 995 995 995 995 995 995 995 993 993 990 990 987 984 984 981 981 981 981 981 978 978 976 973 973 970 968 968 965 965 962 962 962 959 959 959 957 957 954 954 952 952 949 949 949 946 944 941 941 939 939 936 936 933 933 931 931 928 928 928 926 926 926 923 921 921 919 916 916 916 916 914 911 911 909 909 909 907 907 907 907 907 904 904 902 902 902 899 899 897 897 897 895 895 895 890 890 888 807 805 801 801 799 799 798 798 794 794 792 792 790 790 790 790 790 790 790 790 790 790 790 790 790 790 790 790 790 792 792 792 792 792 792 792 794 796 794 796 796 796 798 798 799 801 803 805 807 809 813 815 815 818 820 822 830 836 838 842 842 0 0 0 0 0 0 0 0 0 0 0 0 0 0 0 0 0 0 0 0 0 0 0 0 0 0 0 0 0 0 0 0 0 0 0 0 3357 3390 3357 3390 3390 3390 3390 3390 3390 3390 3390 3390 3390 3390 3390 3390 3390 3423 3423 3423 3423 3423 3423 3423 3423 3423 3423 3423 3423 3423 3423 3390 3390 3423 3390 3423 3423 3423 3423 3423 3390 3390 3390 3390 3390 3357 3357 3357 3357 3357 3357 3357 3390 3357 3390 3357 3324 3324 3293 3293 3262 3262 3143 3143 3143 3115 3143 3143 3143 3143 3143 3143 3115 3115 3115 3115 3115 3087 3059 3033 3033 3006
    0 0 0 0 0 0 0 0 0 0 0 0 0 0 0 0 0 0 0 0 0 0 0 0 0 0 0 0 0 0 0 0 0 0 0 0 0 0 0 0 0 0 0 0 0 0 0 0 0 0 0 0 0 0 0 0 0 0 0 0 1838 1838 1838 2523 2523 2523 2523 2505 2505 2487 2469 2469 2451 2451 2434 2417 2400 2400 2400 2384 2384 2384 2367 2320 2304 2304 2289 2289 2274 2289 2289 2289 2289 2304 2320 2304 2304 2289 2274 2274 2274 3172 3172 3172 3172 3172 3172 3172 3172 3172 3172 3172 3172 3172 3172 3172 3172 3172 3172 3172 3172 3172 3172 3172 3172 3172 3172 3172 3172 3201 3201 3201 3201 3201 3201 3201 3201 3201 3201 3143 3172 3143 3172 3172 1044 1044 1044 1044 1040 1040 1037 1037 1037 1034 1034 1034 1034 1034 1034 1034 1034 1034 1034 1034 1034 1034 1034 1034 1034 1034 1031 1031 1034 1031 1031 1031 1031 1031 1031 1031 1031 1031 1034 1037 1040 1044 1044 1047 1047 1047 1047 1047 1044 1044 1044 1044 1040 1040 1037 1037 1037 1037 1037 1040 1040 1040 1040 1044 1044 1040 1040 1037 1034 1034 1031 1031 1031 1031 1028 1028 1028 1028 1028 1028 1028 1025 1025 1025 1025 1019 1016 1016 1013 1013 1010 1010 1010 1007 1007 1007 1007 1004 1004 1004 1004 1007 1007 1007 1007 1007 1007 1007 1007 1004 1001 1001 1001 1001 1004 1004 1001 1004 1004 1001 1001 998 995 995 995 995 995 995 995 995 995 995 995 995 995 995 995 995 993 993 987 987 984 987 987 987 987 987 987 987 987 987 987 987 987 987 987 987 987 987 987 984 984 978 976 976 976 976 973 973 973 970 970 968 968 962 962 962 962 962 962 965 965 965 968 968 970 970 973 973 973 973 973 973 973 976 976 976 976 978 978 978 978 978 981 981 981 981 984 984 984 987 990 990 993 993 993 993 995 995 995 995 995 995 995 995 995 993 993 993 990 987 987 984 981 981 981 981 981 978 976 976 973 973 970 968 968 965 965 962 962 962 962 959 959 959 957 954 954 952 952 949 949 949 946 944 941 941 941 939 936 936 933 931 931 931 928 928 928 926 926 923 923 921 919 919 916 916 916 914 911 911 909 909 909 907 907 907 904 904 904 904 902 902 902 899 899 899 897 897 897 895 895 895 895 895 890 807 807 805 803 801 801 799 799 798 798 794 792 792 790 790 790 790 790 790 790 790 790 792 790 790 790 792 792 792 792 792 792 792 792 792 796 796 798 796 796 796 798 798 798 799 801 801 805 807 809 811 813 815 818 820 822 830 836 836 840 840 842 0 0 0 0 0 0 0 0 0 0 0 0 0 0 0 0 0 0 0 0 0 0 0 0 0 0 0 0 0 0 0 0 0 0 0 3390 3390 3390 3390 3390 3390 3390 3390 3390 3357 3390 3390 3357 3357 3357 3390 3390 3390 3390 3390 3423 3423 3423 3423 3423 3423 3423 3423 3423 3423 3423 3390 3390 3390 3390 3390 3423 3423 3423 3423 3390 3390 3390 3390 3390 3390 3357 3357 3357 3357 3357 3357 3357 3357 3357 3357 3324 3324 3293 3293 3262 3262 3262 3143 3143 3087 3143 3143 3143 3143 3143 3143 3115 3143 3115 3115 3115 3087 3087 3059 3059 3006
    0 0 0 0 0 0 0 0 0 0 0 0 0 0 0 0 0 0 0 0 0 0 0 0 0 0 0 0 0 0 0 0 0 0 0 0 0 0 0 0 0 0 0 0 0 0 0 0 0 0 0 0 0 0 0 0 0 0 0 0 1848 1848 1858 2523 2523 2523 2523 2505 2487 2469 2469 2469 2451 2451 2434 2417 2400 2400 2384 2384 2384 2384 2367 2320 2304 2289 2289 2289 2289 2289 2289 2274 2289 2304 2320 2304 2304 2289 2289 2274 2274 3172 3172 3172 3143 3172 3172 3172 3172 3172 3172 3172 3172 3172 3172 3172 3172 3172 3172 3172 3172 3172 3172 3172 3172 3172 3172 3172 3201 3201 3201 3201 3201 3201 3201 3201 3201 3201 3201 3143 3172 3172 3172 3172 1040 1037 1037 1037 1034 1034 1034 1034 1034 1034 1034 1034 1034 1034 1034 1031 1031 1034 1031 1031 1031 1031 1031 1031 1031 1031 1031 1031 1031 1031 1031 1028 1028 1028 1028 1028 1028 1028 1031 1034 1037 1040 1044 1044 1044 1044 1044 1044 1044 1044 1040 1040 1040 1037 1037 1037 1037 1037 1037 1037 1040 1040 1040 1044 1044 1040 1037 1037 1034 1031 1031 1028 1028 1028 1025 1025 1028 1025 1025 1025 1025 1022 1022 1022 1019 1013 1013 1013 1010 1010 1010 1007 1007 1007 1004 1004 1004 1004 1004 1004 1004 1007 1007 1007 1007 1007 1007 1007 1004 1001 1001 1001 998 998 1001 1001 1001 1001 1001 1001 998 995 995 993 993 993 993 993 993 993 995 995 995 995 995 995 993 993 990 990 987 984 984 984 984 984 987 984 987 984 984 984 984 984 984 984 984 984 984 984 984 984 981 978 976 976 976 973 973 973 970 970 970 968 968 962 962 962 962 962 962 965 965 965 965 968 970 970 970 973 973 973 973 973 973 973 973 973 976 976 976 978 978 978 978 981 981 981 984 984 984 987 987 990 993 993 993 993 995 995 995 995 995 995 995 995 995 993 993 993 990 990 987 984 981 981 981 981 978 978 976 973 973 973 970 968 968 965 965 962 962 959 959 959 959 957 957 954 954 952 949 949 949 949 946 944 941 939 939 939 936 936 933 933 931 931 928 928 928 926 926 923 921 919 919 916 916 916 914 911 911 909 909 909 907 907 907 904 904 904 904 904 902 899 899 899 899 899 897 899 897 897 895 895 895 895 890 807 807 805 805 805 803 801 801 799 798 796 794 794 792 792 792 792 790 790 790 792 792 792 792 792 792 792 792 792 792 792 794 796 796 796 798 798 798 796 796 796 798 798 798 799 799 801 805 807 809 813 815 816 818 820 822 830 834 836 838 840 842 842 0 0 0 0 0 0 0 0 0 0 0 0 0 0 0 0 0 0 0 0 0 0 0 0 0 0 0 0 0 0 0 0 0 0 3423 3390 3390 3390 3390 3390 3390 3390 3390 3357 3357 3357 3357 3357 3357 3390 3390 3390 3390 3390 3423 3423 3423 3423 3423 3423 3423 3423 3423 3423 3423 3357 3390 3390 3390 3390 3390 3390 3423 3423 3423 3423 3423 3390 3390 3390 3390 3357 3357 3357 3390 3357 3357 3357 3390 3357 3357 3324 3293 3293 3293 3262 3262 3201 3172 3143 3172 3143 3143 3172 3143 3143 3115 3115 3115 3087 3115 3059 3059 3059 3059 3006
    0 0 0 0 0 0 0 0 0 0 0 0 0 0 0 0 0 0 0 0 0 0 0 0 0 0 0 0 0 0 0 0 0 0 0 0 0 0 0 0 0 0 0 0 0 0 0 0 0 0 0 0 0 0 0 0 0 0 0 0 0 1868 2523 2523 2523 2505 2505 2487 2487 2469 2469 2451 2451 2451 2434 2417 2400 2400 2384 2384 2384 2367 2335 2320 2304 2289 2289 2289 2289 2289 2274 2274 2289 2304 2320 2320 2304 2304 2304 2304 3143 3143 3172 3172 3143 3172 3172 3172 3143 3172 3172 3172 3172 3172 3172 3172 3172 3172 3172 3172 3172 3172 3172 3172 3172 3172 3172 3201 3201 3201 3201 3201 3201 3201 3201 3201 3201 3201 3201 3143 3172 3172 3172 3172 1037 1037 1034 1034 1031 1031 1031 1031 1031 1031 1031 1031 1031 1031 1031 1031 1031 1031 1028 1031 1028 1031 1028 1028 1028 1028 1028 1028 1028 1028 1028 1028 1028 1028 1028 1025 1025 1025 1028 1031 1034 1037 1040 1040 1044 1044 1044 1044 1044 1040 1040 1040 1037 1037 1037 1037 1037 1037 1037 1037 1037 1037 1037 1040 1040 1037 1037 1034 1031 1028 1028 1028 1025 1025 1025 1025 1025 1025 1025 1025 1022 1022 1022 1019 1019 1013 1010 1010 1010 1010 1007 1007 1007 1004 1001 1004 1001 1001 1004 1001 1001 1004 1004 1004 1004 1004 1004 1004 1004 1001 998 998 998 998 998 998 998 1001 998 998 998 995 995 993 993 993 993 993 993 993 993 993 993 993 993 993 990 990 987 987 984 984 984 984 984 984 984 984 984 984 984 984 984 984 984 984 984 984 984 984 984 981 981 978 976 973 973 973 973 970 970 968 968 968 965 962 962 962 962 962 962 962 962 962 965 968 970 970 970 973 973 973 973 973 973 973 973 973 973 976 976 976 978 978 978 978 981 981 984 984 984 984 987 990 990 993 993 993 995 995 995 995 995 995 995 995 995 993 993 993 990 990 987 984 981 981 981 978 976 976 976 973 973 973 970 968 968 965 965 962 962 962 959 959 959 957 957 954 954 952 952 949 949 949 946 944 941 939 939 939 936 936 933 933 931 931 928 928 928 926 926 923 921 919 919 916 916 916 914 911 911 909 909 907 907 907 904 904 904 904 904 902 902 899 899 899 899 897 897 897 897 895 895 892 892 892 892 886 809 807 807 805 805 803 803 801 799 798 796 794 794 792 792 792 792 792 792 792 792 792 792 792 792 792 792 792 794 794 794 798 798 798 798 798 798 798 798 798 798 798 798 798 803 805 807 809 811 813 815 815 818 820 822 826 832 836 838 842 842 842 846 0 0 0 0 0 0 0 0 0 0 0 0 0 0 0 0 0 0 0 0 0 0 0 0 0 0 0 0 0 0 0 0 0 3493 3458 3423 3390 3390 3390 3390 3390 3390 3390 3357 3390 3390 3390 3390 3390 3390 3423 3423 3423 3423 3423 3423 3423 3423 3423 3423 3423 3423 3390 3390 3357 3357 3357 3357 3390 3390 3390 3423 3423 3423 3423 3423 3390 3390 3390 3390 3357 3357 3357 3357 3357 3357 3357 3357 3324 3324 3324 3262 3293 3293 3262 3231 3201 3201 3172 3201 3143 3172 3172 3143 3143 3115 3115 3115 3087 3087 3059 3059 3059 3059 3006
    0 0 0 0 0 0 0 0 0 0 0 0 0 0 0 0 0 0 0 0 0 0 0 0 0 0 0 0 0 0 0 0 0 0 0 0 0 0 0 0 0 0 0 0 0 0 0 0 0 0 0 0 0 0 0 0 0 0 0 0 1848 1868 2523 2523 2523 2505 2505 2487 2487 2469 2469 2451 2451 2451 2434 2400 2400 2384 2384 2384 2384 2367 2335 2320 2320 2304 2289 2289 2274 2274 2274 2274 2289 2304 2320 2320 2320 2320 3172 3172 3143 3115 3143 3143 3143 3143 3172 3172 3143 3172 3172 3143 3172 3172 3172 3172 3172 3172 3172 3172 3172 3172 3172 3172 3172 3172 3172 3172 3201 3201 3201 3201 3201 3201 3201 3201 3201 3201 3201 3172 3172 3201 1034 1037 1034 1031 1031 1028 1025 1028 1028 1028 1028 1028 1031 1028 1031 1028 1028 1028 1028 1028 1028 1028 1028 1028 1028 1025 1025 1028 1028 1028 1028 1028 1028 1028 1028 1025 1025 1025 1025 1025 1025 1028 1034 1034 1037 1037 1040 1040 1040 1040 1040 1040 1040 1037 1037 1037 1037 1034 1034 1034 1034 1034 1034 1034 1034 1037 1037 1037 1034 1031 1028 1028 1025 1025 1025 1025 1022 1022 1025 1025 1025 1022 1022 1022 1022 1019 1016 1010 1010 1010 1007 1007 1007 1004 1004 1001 998 998 998 998 998 998 998 1001 1001 1001 1001 1004 1001 1004 1001 998 998 998 998 995 995 995 995 998 998 998 995 993 993 993 993 990 990 990 990 993 993 993 993 993 993 990 990 990 987 984 984 984 984 981 981 981 984 984 984 981 981 981 981 981 981 981 981 981 981 984 981 978 978 976 973 973 970 970 970 970 970 968 968 965 965 962 959 959 959 962 962 962 962 962 965 968 968 970 970 970 973 973 973 973 973 973 973 973 973 973 973 976 976 976 978 978 978 981 981 984 984 984 987 990 990 993 993 993 995 995 995 995 995 995 995 995 995 993 993 993 990 987 984 981 981 981 978 978 976 976 973 973 973 970 970 968 968 965 965 965 962 962 959 959 959 957 957 954 952 952 952 949 949 949 946 944 941 939 939 939 936 936 933 933 931 928 928 928 926 926 923 923 921 919 919 916 916 916 914 911 911 909 909 907 907 907 904 904 904 904 902 902 899 899 899 899 899 897 897 897 897 892 892 892 892 892 890 888 809 809 807 807 805 805 803 801 799 798 796 796 794 794 794 794 792 792 792 792 792 792 792 792 792 794 794 794 794 796 796 798 798 798 798 798 798 798 798 799 798 799 799 803 805 805 809 811 813 813 815 816 818 820 822 826 830 836 838 840 842 842 846 851 0 0 0 0 0 0 0 0 0 0 0 0 0 0 0 0 0 0 0 0 0 0 0 0 0 0 0 0 0 0 0 3493 3493 3493 3423 3423 3390 3390 3390 3390 3390 3357 3390 3390 3390 3390 3390 3390 3390 3423 3423 3423 3423 3423 3423 3423 3423 3423 3423 3423 3390 3390 3390 3357 3357 3357 3357 3390 3390 3390 3423 3458 3458 3423 3423 3390 3390 3390 3357 3357 3357 3357 3357 3357 3324 3357 3357 3324 3324 3293 3262 3262 3262 3231 3231 3201 3201 3143 3172 3143 3143 3143 3143 3115 3115 3115 3115 3115 3087 3059 3059 3059 3033 3006
    0 0 0 0 0 0 0 0 0 0 0 0 0 0 0 0 0 0 0 0 0 0 0 0 0 0 0 0 0 0 0 0 0 0 0 0 0 0 0 0 0 0 0 0 0 0 0 0 0 0 0 0 0 0 0 0 0 0 0 0 1848 2523 2523 2523 2505 2505 2487 2487 2469 2469 2469 2451 2451 2434 2434 2400 2400 2384 2384 2384 2384 2367 2351 2335 2320 2304 2289 2274 2274 2289 2289 2274 2289 2289 2320 2320 2320 2335 3172 3172 3143 3115 3143 3172 3143 3143 3172 3172 3172 3172 3172 3143 3172 3143 3143 3172 3172 3172 3172 3172 3172 3172 3172 3172 3172 3172 3172 3172 3201 3201 3201 3201 3172 3172 3172 3172 3172 3172 3172 3143 3172 3172 1037 1034 1031 1028 1025 1025 1022 1025 1025 1022 1025 1022 1025 1025 1025 1025 1025 1025 1025 1025 1025 1028 1025 1025 1025 1025 1025 1025 1025 1025 1025 1025 1028 1028 1025 1025 1025 1025 1025 1025 1025 1025 1031 1034 1034 1037 1037 1040 1040 1040 1040 1037 1037 1037 1037 1037 1037 1034 1034 1034 1034 1034 1034 1034 1034 1034 1034 1034 1031 1028 1028 1025 1025 1025 1025 1022 1022 1022 1025 1022 1022 1022 1022 1019 1019 1016 1013 1010 1007 1007 1007 1004 1004 1004 1001 998 995 998 998 998 998 998 998 998 998 998 1001 1001 998 1001 1001 998 998 998 995 995 995 995 995 995 995 995 993 990 990 990 990 990 990 990 990 990 990 990 990 990 990 987 987 987 981 981 981 981 981 981 981 981 981 981 981 981 981 981 981 981 981 981 978 981 981 981 978 978 976 973 970 970 970 970 970 968 968 965 965 962 962 959 959 959 959 959 959 962 962 962 965 968 968 968 970 970 970 970 973 973 973 973 973 973 973 973 973 976 976 976 976 976 978 981 981 981 984 984 987 987 990 993 993 993 993 995 995 995 995 993 995 993 993 993 993 993 990 987 984 981 981 981 978 976 976 976 973 973 970 970 970 968 968 965 965 965 962 962 959 959 959 957 957 954 952 952 952 949 949 949 946 944 944 939 939 939 936 936 933 933 931 931 928 926 926 923 923 921 921 919 916 916 916 914 911 911 909 909 909 907 907 907 904 904 902 902 902 899 899 899 899 899 897 897 897 897 895 892 892 892 890 890 890 888 807 807 809 807 807 807 805 803 801 799 799 798 798 796 796 794 794 794 794 794 792 792 792 792 794 794 794 794 796 796 796 796 796 798 799 798 799 799 799 799 799 799 799 803 805 805 807 809 813 813 815 818 818 820 822 826 830 834 838 838 842 842 849 853 0 0 0 0 0 0 0 0 0 0 0 0 0 0 0 0 0 0 0 0 0 0 0 0 0 0 0 0 0 0 0 0 3528 3528 3324 3324 3357 3390 3357 3357 3357 3357 3357 3390 3390 3390 3390 3390 3390 3423 3423 3423 3423 3423 3423 3423 3423 3423 3423 3423 3423 3423 3390 3357 3357 3357 3357 3357 3357 3357 3390 3423 3458 3390 3390 3390 3390 3390 3390 3390 3357 3357 3357 3357 3324 3357 3357 3324 3293 3293 3262 3262 3293 3262 3262 3231 3201 3143 3172 3143 3172 3172 3143 3143 3115 3115 3115 3115 3115 3087 3059 3059 3059 3033
    0 0 0 0 0 0 0 0 0 0 0 0 0 0 0 0 0 0 0 0 0 0 0 0 0 0 0 0 0 0 0 0 0 0 0 0 0 0 0 0 0 0 0 0 0 0 0 0 0 0 0 0 0 0 0 0 0 0 0 0 1848 2523 2523 2523 2505 2505 2487 2469 2469 2469 2451 2451 2434 2434 2417 2400 2384 2384 2384 2384 2367 2351 2351 2335 2320 2304 2289 2289 2289 2289 2289 2289 2304 2304 2320 2335 2335 3172 3143 3115 3115 3115 3143 3172 3172 3143 3172 3172 3172 3143 3143 3143 3172 3143 3143 3143 3172 3172 3172 3172 3172 3172 3172 3172 3172 3172 3172 3172 3201 3201 3172 3172 3172 3172 3172 3172 3172 3172 3201 3172 3172 3231 1031 1025 1022 1022 1022 1022 1019 1022 1022 1019 1019 1019 1022 1022 1025 1022 1025 1025 1025 1025 1025 1025 1025 1025 1025 1025 1025 1025 1025 1025 1025 1025 1025 1025 1025 1025 1025 1025 1022 1022 1025 1025 1028 1031 1034 1034 1037 1037 1037 1037 1037 1037 1037 1037 1037 1034 1034 1034 1034 1034 1031 1031 1031 1031 1031 1034 1034 1031 1031 1028 1028 1025 1025 1025 1022 1022 1022 1022 1022 1022 1022 1019 1019 1019 1016 1013 1013 1007 1007 1007 1007 1004 1001 1001 998 998 995 998 998 998 998 998 998 998 998 998 998 998 998 998 998 998 995 995 995 995 995 993 993 993 993 993 990 987 987 987 987 987 987 987 987 990 990 987 987 987 987 987 984 984 981 978 981 981 981 978 978 978 981 981 978 978 978 978 978 978 978 978 978 978 978 978 978 976 973 970 968 968 968 968 968 965 965 965 962 959 959 957 957 957 959 959 959 959 962 962 965 968 968 968 970 970 970 970 970 973 973 973 973 973 973 973 973 976 976 976 976 976 978 981 981 981 984 984 987 987 990 993 993 993 993 995 995 995 995 995 995 993 995 993 993 993 990 990 984 981 981 978 978 976 973 973 973 973 970 970 970 970 968 968 968 965 962 962 962 959 959 957 957 954 952 952 952 949 949 949 949 944 944 941 939 939 936 936 936 933 933 931 928 926 926 923 921 921 919 919 916 916 914 914 911 909 909 909 909 907 907 907 904 902 902 902 899 899 899 899 897 897 897 897 897 897 895 892 892 890 890 890 890 888 888 813 813 811 811 809 807 807 803 801 801 799 798 798 798 798 798 796 796 796 796 794 796 794 794 794 796 796 796 798 798 796 798 798 798 798 799 798 799 799 799 799 801 803 805 805 807 809 811 811 813 815 818 820 822 826 828 834 838 840 842 846 849 853 0 0 0 0 0 0 0 0 0 0 0 0 0 0 0 0 0 0 0 0 0 0 0 0 0 0 0 0 0 0 0 0 3528 3528 3324 3324 3324 3324 3324 3357 3324 3357 3357 3357 3390 3390 3390 3390 3390 3390 3390 3423 3423 3423 3423 3423 3423 3423 3423 3423 3423 3423 3423 3390 3390 3390 3357 3357 3357 3357 3390 3423 3423 3390 3390 3390 3423 3390 3390 3390 3390 3357 3357 3357 3357 3357 3357 3357 3324 3293 3293 3293 3293 3293 3293 3262 3231 3172 3143 3143 3143 3143 3143 3115 3115 3115 3087 3087 3087 3059 3033 3033 3033 3006
    0 0 0 0 0 0 0 0 0 0 0 0 0 0 0 0 0 0 0 0 0 0 0 0 0 0 0 0 0 0 0 0 0 0 0 0 0 0 0 0 0 0 0 0 0 0 0 0 0 0 0 0 0 0 0 0 0 0 0 0 2469 2469 2487 2505 2505 2487 2487 2469 2469 2451 2451 2451 2434 2434 2417 2400 2384 2384 2367 2367 2367 2335 2335 2320 2304 2289 2289 2289 2289 2289 2289 2289 2289 2274 2289 3172 3172 3172 3143 3143 3115 3115 3172 3172 3172 3172 3172 3172 3172 3172 3172 3172 3172 3172 3143 3143 3143 3143 3172 3143 3143 3172 3172 3172 3172 3172 3172 3172 3172 3172 3172 3172 3172 3172 3172 3172 3172 3201 3201 3172 1010 1010 1013 1019 1019 1019 1019 1019 1019 1019 1019 1019 1019 1019 1019 1019 1022 1022 1022 1022 1022 1022 1022 1025 1025 1022 1022 1022 1022 1025 1022 1025 1025 1025 1025 1025 1025 1025 1025 1022 1022 1022 1022 1025 1028 1028 1031 1034 1034 1037 1037 1037 1037 1037 1037 1037 1037 1034 1034 1034 1031 1031 1031 1028 1031 1031 1031 1031 1031 1031 1031 1028 1025 1025 1025 1025 1022 1022 1022 1022 1022 1019 1019 1016 1016 1016 1016 1013 1010 1007 1007 1007 1004 1004 1001 1001 998 995 995 995 995 995 995 995 995 995 998 998 998 998 998 998 998 998 995 995 995 995 995 993 993 990 993 990 990 987 987 987 987 987 987 987 987 987 987 987 987 987 984 984 984 984 981 978 978 978 978 978 978 978 978 978 978 978 976 976 976 976 976 976 976 976 978 976 976 973 973 968 965 965 965 965 965 962 962 962 959 957 957 954 957 957 957 959 959 959 962 962 962 965 965 968 968 970 970 970 970 970 970 973 973 973 973 973 973 973 973 976 976 976 978 981 981 981 984 984 984 987 987 990 993 993 993 995 995 995 995 995 995 993 995 993 993 993 990 987 984 981 978 978 976 973 973 973 973 970 970 970 970 970 968 968 968 965 962 962 962 962 959 959 957 957 954 954 952 952 952 949 949 946 944 941 939 939 936 936 936 933 931 931 928 926 926 923 921 921 919 919 916 916 914 914 911 909 909 909 909 907 907 907 904 902 902 902 899 899 899 899 897 897 897 897 897 897 895 892 892 890 890 888 888 886 888 813 813 811 811 811 809 809 805 803 801 799 799 799 799 799 798 798 798 798 798 796 798 796 796 796 796 796 796 798 798 798 798 798 798 799 799 798 798 799 799 799 803 803 805 807 809 811 811 813 815 815 816 820 822 826 828 834 836 840 842 846 849 853 855 0 0 0 0 0 0 0 0 0 0 0 0 0 0 0 0 0 0 0 0 0 0 0 0 0 0 0 0 0 0 0 3565 3565 0 3293 3293 3324 3324 3324 3324 3324 3357 3357 3390 3390 3390 3390 3390 3390 3390 3390 3390 3423 3423 3423 3423 3423 3458 3458 3458 3458 3458 3390 3390 3390 3357 3357 3357 3357 3390 3423 3423 3390 3390 3390 3423 3390 3390 3390 3390 3357 3357 3357 3357 3357 3357 3324 3293 3293 3293 3293 3293 3293 3262 3262 3231 3143 3115 3115 3115 3115 3115 3115 3115 3087 3087 3059 3033 3033 3033 3033 3006 2980
    0 0 0 0 0 0 0 0 0 0 0 0 0 0 0 0 0 0 0 0 0 0 0 0 0 0 0 0 0 0 0 0 0 0 0 0 0 0 0 0 0 0 0 0 0 0 0 0 0 0 0 0 0 0 0 0 0 0 0 2487 2505 2487 2505 2505 2505 2487 2469 2469 2469 2451 2451 2434 2417 2400 2400 2384 2384 2367 2367 2351 2351 2335 2320 2304 2304 2289 2289 2274 2274 2274 2289 2274 2274 2259 2259 3201 3172 3143 3143 3143 3115 3143 3172 3172 3172 3172 3172 3143 3172 3172 3172 3172 3172 3172 3143 3143 3143 3172 3172 3172 3143 3172 3172 3172 3172 3172 3172 3172 3172 3172 3172 3172 3172 3172 3172 3172 3172 3172 3201 3172 1013 1013 1016 1016 1016 1016 1016 1016 1016 1016 1016 1016 1016 1013 1013 1013 1016 1016 1019 1019 1019 1019 1022 1022 1022 1022 1022 1022 1022 1022 1022 1022 1025 1025 1025 1025 1025 1022 1022 1022 1022 1022 1022 1025 1025 1028 1031 1034 1034 1037 1037 1037 1037 1034 1034 1034 1034 1034 1034 1031 1031 1031 1028 1028 1028 1028 1028 1031 1031 1028 1028 1025 1025 1025 1022 1022 1022 1019 1019 1019 1019 1019 1019 1016 1016 1013 1013 1013 1010 1007 1007 1004 1001 1001 998 998 995 995 995 995 995 995 995 995 995 995 995 995 995 995 995 995 995 995 995 995 995 993 993 993 990 990 990 990 987 987 987 987 984 984 984 984 984 984 984 984 984 984 984 984 981 981 978 978 978 978 978 976 976 976 976 976 976 976 976 976 976 976 976 976 976 976 976 973 973 970 968 965 965 962 965 965 962 962 959 959 959 957 957 954 957 957 957 959 959 959 962 962 962 965 965 968 968 970 970 970 970 970 970 970 970 970 973 973 973 973 973 973 973 976 978 978 981 981 981 984 984 987 987 990 993 993 993 995 993 993 995 995 995 993 995 995 995 993 993 990 984 981 978 978 976 973 973 973 973 970 970 970 970 970 970 968 968 965 965 962 962 962 959 959 957 957 954 954 952 952 952 949 949 946 944 941 939 939 936 936 936 933 931 931 928 926 926 923 921 921 919 919 916 916 914 914 911 911 909 909 909 907 907 904 904 902 899 899 899 899 897 897 897 897 897 897 895 895 892 892 890 890 888 888 888 888 888 815 815 813 813 813 811 811 809 807 803 803 799 801 799 799 799 798 798 798 798 798 798 798 798 796 796 798 798 798 798 798 798 799 799 799 799 798 799 799 801 801 803 805 807 809 809 811 811 813 815 815 816 820 824 824 828 832 836 838 838 842 846 853 853 0 0 0 0 0 0 0 0 0 0 0 0 0 0 0 0 0 0 0 0 0 0 0 0 0 0 0 0 0 0 0 0 0 0 3324 3324 3324 3324 3324 3324 3357 3357 3390 3390 3390 3390 3390 3390 3390 3390 3390 3390 3423 3390 3423 3423 3423 3458 3458 3458 3458 3458 3423 3390 3390 3390 3390 3357 3357 3390 3390 3390 3390 3390 3390 3390 3390 3390 3390 3390 3357 3357 3357 3357 3357 3324 3293 3293 3293 3293 3262 3293 3262 3262 3231 3201 3115 3115 3115 3115 3115 3115 3115 3115 3087 3087 3059 3033 3033 3006 3006 3006 2980
    0 0 0 0 0 0 0 0 0 0 0 0 0 0 0 0 0 0 0 0 0 0 0 0 0 0 0 0 0 0 0 0 0 0 0 0 0 0 0 0 0 0 0 0 0 0 0 0 0 0 0 0 0 0 0 0 0 0 0 2469 2469 2487 2505 2505 2505 2487 2469 2469 2451 2451 2434 2417 2400 2400 2384 2367 2367 2367 2367 2351 2335 2320 2320 2304 2289 2274 2289 2289 2274 2289 2274 2274 2259 2259 3201 3172 3172 3143 3143 3143 3143 3143 3143 3143 3143 3172 3172 3143 3172 3172 3172 3172 3172 3172 3143 3143 3143 3143 3172 3143 3143 3172 3172 3172 3172 3172 3172 3172 3172 3172 3172 3172 3172 3172 3172 3172 3172 3172 3201 1016 1013 1013 1013 1013 1013 1013 1013 1013 1013 1013 1013 1013 1013 1013 1010 1010 1013 1013 1013 1013 1016 1016 1019 1019 1019 1019 1022 1022 1022 1022 1022 1022 1022 1022 1022 1022 1022 1022 1022 1022 1019 1019 1019 1022 1022 1025 1028 1031 1031 1034 1034 1034 1034 1034 1034 1034 1034 1034 1034 1031 1031 1028 1028 1025 1025 1028 1025 1028 1028 1028 1028 1025 1022 1022 1022 1022 1019 1019 1016 1016 1016 1016 1016 1013 1013 1013 1013 1010 1010 1004 1004 1001 998 998 995 995 993 993 995 995 995 995 995 995 995 995 995 995 995 995 995 995 995 995 995 993 993 993 993 990 990 987 987 987 987 984 984 984 981 981 981 981 981 981 984 984 984 981 981 981 981 981 978 978 978 976 976 976 976 976 976 973 976 976 976 976 976 976 976 976 976 973 973 970 968 968 968 965 962 962 965 962 962 959 957 957 957 957 957 954 954 957 957 959 959 959 959 962 962 962 965 965 968 968 970 970 970 970 970 970 970 970 973 973 973 973 973 973 973 976 976 978 978 981 981 984 984 987 987 990 993 993 993 995 993 995 995 995 995 995 995 995 995 993 993 990 984 981 978 978 976 973 973 973 973 973 970 970 970 970 970 968 968 965 965 965 962 962 959 959 959 957 957 954 954 952 952 952 949 946 944 941 939 939 939 936 936 933 931 931 928 926 926 923 923 921 919 919 916 916 914 914 911 911 909 909 909 907 907 907 904 902 902 899 899 899 897 897 897 897 897 895 895 895 892 890 890 888 888 888 888 888 888 886 818 815 815 815 813 813 811 807 807 805 803 803 801 801 799 799 799 799 799 798 798 798 798 798 798 798 798 798 798 799 799 799 799 799 799 799 801 801 801 803 805 805 807 811 811 811 813 813 815 818 820 820 824 826 830 832 834 836 838 840 844 851 853 853 0 0 0 0 0 0 0 0 0 0 0 0 0 0 0 0 0 0 0 0 0 0 0 0 0 0 0 0 0 0 0 0 0 0 3293 3293 3293 3324 3324 3324 3357 3390 3390 3390 3390 3390 3390 3390 3390 3390 3390 3423 3390 3423 3423 3423 3423 3458 3458 3458 3423 3423 3390 3390 3390 3390 3357 3357 3390 3390 3357 3390 3390 3390 3390 3390 3390 3390 3390 3390 3357 3357 3357 3357 3293 3293 3293 3293 3293 3293 3293 3293 3262 3262 3231 3172 3143 3115 3115 3115 3115 3087 3087 3087 3059 3033 3033 3033 3033 3006 3006 3006
    0 0 0 0 0 0 0 0 0 0 0 0 0 0 0 0 0 0 0 0 0 0 0 0 0 0 0 0 0 0 0 0 0 0 0 0 0 0 0 0 0 0 0 0 0 0 0 0 0 0 0 0 0 0 0 0 0 0 2451 2469 2487 2487 2505 2505 2505 2487 2487 2469 2451 2434 2417 2400 2400 2384 2367 2367 2367 2351 2351 2351 2335 2320 2304 2289 2274 2274 2274 2274 2274 2274 2289 2259 2259 2259 3172 3172 3172 3143 3143 3143 3143 3143 3143 3143 3143 3143 3172 3143 3172 3172 3172 3172 3172 3172 3172 3143 3143 3143 3172 3172 3143 3172 3172 3172 3172 3172 3172 3172 3172 3172 3143 3143 3172 3172 3172 3172 3172 3172 3172 1013 1013 1013 1013 1013 1010 1013 1013 1013 1013 1013 1013 1010 1010 1010 1010 1010 1010 1010 1010 1013 1013 1013 1016 1016 1019 1019 1019 1019 1019 1022 1022 1022 1022 1022 1022 1022 1022 1022 1022 1019 1016 1016 1019 1022 1022 1022 1025 1028 1031 1031 1031 1031 1031 1031 1031 1031 1031 1031 1031 1031 1028 1028 1025 1025 1025 1025 1025 1025 1025 1025 1025 1022 1022 1022 1019 1019 1019 1016 1016 1013 1013 1013 1013 1013 1010 1010 1010 1010 1007 1004 1001 1001 998 998 995 995 993 993 995 995 995 995 995 993 993 995 995 993 993 993 993 995 993 993 993 993 990 990 990 987 987 987 987 984 984 984 981 981 981 981 981 981 981 981 981 981 981 981 981 981 981 981 978 978 976 976 976 976 973 973 973 973 973 976 976 976 976 973 973 973 973 973 970 968 965 965 965 962 962 962 962 959 957 957 954 954 954 954 954 952 954 957 957 957 959 959 959 962 962 962 965 965 968 968 968 968 970 970 970 970 970 970 973 973 973 973 973 973 973 973 976 976 978 981 981 981 984 984 987 990 993 993 993 993 993 993 995 995 995 995 995 995 995 993 993 990 987 981 978 978 976 976 973 973 973 973 973 970 970 970 970 968 968 968 965 965 962 962 962 959 959 957 957 954 954 952 952 952 949 946 946 944 941 939 939 936 936 933 931 931 928 926 926 923 921 921 919 919 916 916 916 914 911 911 909 909 909 907 907 907 904 902 899 899 899 899 897 897 897 897 895 895 892 892 890 890 890 888 888 888 888 886 886 883 881 818 816 816 815 815 813 811 809 807 805 805 803 803 801 799 801 799 799 799 799 798 799 798 798 799 799 799 799 799 799 799 799 799 801 799 801 801 801 803 805 807 811 811 813 811 813 813 816 818 820 822 826 828 830 832 834 836 836 840 844 849 851 855 0 0 0 0 0 0 0 0 0 0 0 0 0 0 0 0 0 0 0 0 0 0 0 0 0 0 0 0 0 0 0 0 0 0 0 3293 3262 3293 3293 3324 3357 3390 3390 3390 3390 3390 3390 3390 3390 3390 3390 3390 3390 3390 3390 3390 3423 3423 3423 3423 3423 3390 3390 3390 3390 3390 3357 3357 3357 3357 3357 3357 3390 3390 3423 3390 3390 3390 3390 3390 3357 3357 3357 3324 3357 3293 3293 3262 3262 3262 3262 3262 3262 3231 3231 3172 3115 3087 3087 3087 3087 3059 3059 3059 3033 3033 3033 3006 3006 3006 2980 2980
    0 0 0 0 0 0 0 0 0 0 0 0 0 0 0 0 0 0 0 0 0 0 0 0 0 0 0 0 0 0 0 0 0 0 0 0 0 0 0 0 0 0 0 0 0 0 0 0 0 0 0 0 0 0 0 0 0 0 2451 2469 2505 2505 2505 2505 2505 2487 2469 2451 2451 2417 2417 2400 2400 2384 2367 2367 2351 2351 2351 2351 2335 2320 2289 2274 2274 2274 2274 2274 2274 2274 2304 2259 2259 3172 3201 3172 3143 3143 3143 3143 3143 3143 3143 3143 3143 3143 3172 3143 3172 3172 3172 3172 3172 3172 3143 3143 3143 3143 3172 3143 3172 3172 3172 3172 3172 3172 3172 3172 3172 3143 3143 3143 3143 3172 3143 3172 3172 3172 1019 1013 1013 1013 1013 1010 1010 1010 1010 1010 1010 1010 1010 1010 1010 1007 1007 1007 1007 1007 1010 1010 1010 1010 1013 1013 1013 1016 1016 1016 1019 1019 1019 1022 1022 1022 1022 1022 1022 1019 1019 1019 1016 1016 1016 1019 1019 1022 1025 1028 1028 1028 1031 1028 1031 1031 1028 1031 1031 1028 1028 1028 1025 1025 1025 1025 1025 1022 1022 1022 1022 1022 1019 1019 1019 1019 1019 1019 1016 1013 1013 1013 1013 1013 1010 1010 1010 1010 1010 1007 1007 1001 1001 998 998 995 995 993 993 993 993 995 995 993 993 993 993 995 993 993 993 993 993 993 993 993 990 990 990 987 987 987 987 984 984 984 984 984 981 981 978 981 978 978 978 978 978 981 981 978 978 978 978 978 978 978 976 976 976 973 973 973 973 973 973 976 976 976 973 973 973 973 973 970 965 965 965 965 962 962 959 959 959 957 954 954 954 954 954 954 954 952 952 954 954 957 959 959 959 962 962 962 962 965 965 968 968 968 968 968 970 970 970 970 970 973 973 973 973 973 973 973 973 976 976 978 981 981 984 984 987 990 993 993 993 993 993 993 993 995 995 995 995 995 995 993 993 990 987 981 981 978 976 976 976 973 973 973 973 970 970 970 970 970 970 968 968 968 965 965 962 959 959 959 957 957 957 954 952 952 952 946 946 944 941 941 939 936 936 933 931 931 928 926 926 923 923 921 919 919 919 916 916 914 911 911 909 909 909 909 907 907 904 902 899 899 899 897 897 897 897 897 895 895 892 892 890 890 890 888 888 888 886 886 886 881 881 883 816 816 816 815 815 813 811 809 807 807 807 805 803 803 803 801 801 799 799 799 799 799 799 799 799 799 799 799 799 801 801 801 803 801 803 803 803 805 807 811 811 813 813 813 813 815 816 818 820 824 826 828 830 832 834 834 836 838 842 846 849 853 0 0 0 0 0 0 0 0 0 0 0 0 0 0 0 0 0 0 0 0 0 0 0 0 0 0 0 0 0 0 0 0 0 0 0 3293 3262 3262 3293 3324 3357 3357 3390 3390 3390 3390 3390 3390 3357 3390 3390 3390 3357 3390 3390 3390 3390 3423 3423 3423 3423 3390 3390 3390 3390 3357 3357 3357 3357 3357 3357 3357 3390 3390 3423 3390 3390 3390 3390 3390 3357 3357 3324 3324 3293 3293 3293 3262 3262 3262 3262 3262 3231 3231 3231 3201 3143 3115 3087 3087 3059 3059 3059 3033 3033 3006 3033 3006 2980 2980 2980 2980
    0 0 0 0 0 0 0 0 0 0 0 0 0 0 0 0 0 0 0 0 0 0 0 0 0 0 0 0 0 0 0 0 0 0 0 0 0 0 0 0 0 0 0 0 0 0 0 0 0 0 0 0 0 0 0 0 0 0 0 2469 2505 2505 2505 2505 2469 2469 2469 2434 2434 2400 2400 2384 2384 2384 2367 2367 2367 2351 2351 2335 2320 2289 2274 2274 2259 2259 2259 2274 2259 2259 2259 2244 2259 3172 3172 3172 3172 3172 3143 3143 3143 3143 3143 3143 3143 3143 3143 3143 3172 3172 3143 3143 3143 3143 3143 3143 3143 3143 3143 3143 3172 3172 3172 3172 3172 3172 3172 3172 3172 3143 3143 3143 3143 3172 3143 3172 1019 1019 1016 1013 1013 1013 1013 1010 1010 1007 1007 1007 1007 1007 1007 1007 1004 1004 1004 1004 1004 1004 1004 1007 1010 1010 1010 1013 1013 1013 1013 1013 1016 1016 1016 1019 1022 1019 1022 1019 1019 1019 1019 1016 1013 1013 1013 1016 1016 1019 1022 1025 1025 1028 1028 1028 1028 1028 1028 1028 1028 1028 1028 1025 1025 1025 1022 1022 1022 1022 1022 1022 1019 1019 1016 1016 1013 1016 1016 1016 1013 1013 1013 1010 1010 1010 1010 1007 1007 1007 1007 1004 1004 998 998 995 995 995 993 993 990 993 995 995 995 993 993 993 993 993 993 993 993 993 993 993 993 993 990 990 987 987 984 984 984 981 981 981 981 981 978 981 978 978 978 978 978 976 978 978 978 978 978 978 978 978 978 976 976 976 973 973 973 973 973 973 973 976 976 976 973 973 973 970 968 965 962 962 962 962 962 959 959 959 957 954 954 952 954 952 952 954 954 952 952 954 954 957 957 959 959 962 962 962 962 962 965 965 965 965 968 968 970 970 970 970 970 970 973 973 973 973 973 973 973 976 976 978 981 981 984 984 987 990 990 993 993 993 993 993 993 995 995 995 995 995 995 993 993 990 987 984 981 978 978 976 976 973 973 973 973 970 970 970 970 970 970 968 968 968 965 965 962 962 959 959 959 959 957 957 957 954 952 949 946 944 944 941 939 939 936 933 933 933 931 928 926 926 926 921 921 919 919 919 916 914 911 911 909 909 909 909 907 904 902 899 899 899 899 897 897 897 897 895 895 892 892 892 890 890 890 888 888 886 886 886 883 881 881 881 883 818 818 816 815 815 813 811 811 809 807 807 805 805 805 803 803 801 801 799 801 799 799 799 799 799 799 799 799 801 801 807 807 805 805 807 807 809 809 811 811 811 813 813 813 815 816 820 820 826 828 828 828 830 832 834 836 838 842 844 849 853 0 0 0 0 0 0 0 0 0 0 0 0 0 0 0 0 0 0 0 0 0 0 0 0 0 0 0 0 0 0 0 0 0 0 0 3293 3262 3262 3262 3293 3324 3357 3357 3390 3390 3390 3390 3357 3357 3357 3357 3357 3357 3390 3390 3390 3390 3390 3390 3390 3390 3357 3390 3390 3357 3357 3357 3390 3357 3357 3357 3357 3357 3390 3390 3390 3390 3390 3390 3390 3390 3357 3357 3324 3293 3293 3293 3293 3262 3262 3262 3262 3231 3231 3231 3201 3143 3115 3087 3087 3087 3087 3059 3059 3033 3033 3033 3006 3006 2980 2980 2980
    0 0 0 0 0 0 0 0 0 0 0 0 0 0 0 0 0 0 0 0 0 0 0 0 0 0 0 0 0 0 0 0 0 0 0 0 0 0 0 0 0 0 0 0 0 0 0 0 0 0 0 0 0 0 0 0 0 0 0 2451 2451 2505 2505 2469 2469 2469 2469 2451 2400 2384 2384 2384 2384 2367 2367 2367 2351 2351 2351 2335 2320 2289 2274 2274 2259 2274 2259 2259 2259 2274 2289 2289 3172 3172 3201 3143 3143 3143 3143 3143 3143 3143 3143 3143 3143 3143 3143 3143 3143 3143 3143 3143 3143 3143 3143 3143 3172 3172 3172 3172 3172 3172 3172 3172 3172 3172 3172 3172 3143 3143 3143 3143 3172 3172 3172 1016 1016 1016 1016 1010 1010 1010 1010 1007 1004 1004 1004 1004 1004 1004 1004 1001 1001 1001 1001 1001 1001 1001 1001 1004 1007 1007 1010 1010 1010 1013 1013 1013 1013 1016 1016 1019 1019 1019 1019 1019 1019 1019 1016 1013 1013 1013 1013 1013 1016 1019 1022 1022 1025 1025 1025 1025 1025 1025 1025 1025 1025 1025 1025 1025 1022 1022 1022 1022 1022 1019 1019 1019 1016 1016 1013 1013 1013 1013 1013 1013 1013 1010 1010 1010 1010 1010 1007 1004 1004 1004 1004 1001 1001 998 995 993 990 990 990 990 990 990 993 995 995 993 993 990 993 993 990 990 990 990 990 990 990 990 987 987 984 984 984 981 981 981 978 978 978 978 978 978 978 978 978 976 978 978 978 978 978 978 978 978 978 978 978 976 976 973 973 973 973 973 970 970 973 973 973 973 973 970 970 965 965 962 962 962 962 962 962 959 957 957 954 952 952 952 952 952 952 952 954 952 952 952 954 957 959 959 959 962 962 962 962 962 962 965 965 965 965 968 968 968 970 970 970 970 970 970 970 973 973 973 973 973 976 978 981 981 984 984 987 990 990 993 993 993 993 993 993 995 995 995 995 995 995 995 993 990 987 984 981 981 978 978 976 976 973 973 973 973 973 970 970 970 970 968 968 968 965 962 962 962 959 959 959 959 959 957 957 957 954 949 949 946 944 941 939 939 936 936 933 933 931 928 928 928 926 923 923 921 919 919 916 914 914 911 909 909 909 909 907 907 904 902 899 899 899 897 897 897 897 895 895 892 892 890 890 890 890 888 888 886 886 886 883 881 881 881 881 818 818 818 816 816 815 813 813 811 809 809 807 807 805 805 805 803 803 801 801 801 801 799 799 801 799 801 801 803 805 807 807 805 807 807 809 809 811 811 811 813 813 813 815 816 818 820 822 826 828 828 830 830 832 834 836 838 842 844 846 844 840 0 0 0 0 0 0 0 0 0 0 0 0 0 0 0 0 0 0 0 0 0 0 0 0 0 0 0 0 0 0 0 0 0 0 0 3262 3262 3293 3324 3324 3357 3357 3357 3390 3390 3390 3357 3357 3357 3357 3357 3324 3357 3357 3357 3357 3357 3357 3423 3390 3357 3390 3390 3390 3390 3357 3357 3357 3357 3357 3357 3357 3357 3390 3390 3390 3390 3390 3390 3357 3357 3324 3357 3324 3293 3293 3262 3262 3262 3262 3262 3231 3231 3231 3201 3143 3087 3087 3059 3059 3059 3059 3033 3033 3006 3006 3006 2980 2980 2980 2980
    0 0 0 0 0 0 0 0 0 0 0 0 0 0 0 0 0 0 0 0 0 0 0 0 0 0 0 0 0 0 0 0 0 0 0 0 0 0 0 0 0 0 0 0 0 0 0 0 0 0 0 0 0 0 0 0 0 0 0 2469 2469 2487 2469 2469 2469 2469 2469 2451 2451 2384 2384 2367 2384 2351 2351 2351 2351 2351 2335 2335 2320 2289 2274 2274 2274 2274 2259 2259 2259 2259 2274 2259 2244 3172 3201 3172 3143 3143 3172 3172 3143 3143 3143 3143 3143 3143 3143 3143 3143 3143 3172 3172 3172 3143 3143 3143 3143 3143 3172 3143 3172 3172 3172 3172 3172 3172 3172 3172 3143 3143 3172 3172 3172 3172 3172 1019 1016 1016 1013 1010 1007 1007 1007 1004 1001 1001 1001 998 1001 1001 998 998 998 998 998 998 998 998 1001 1004 1004 1007 1010 1010 1010 1010 1010 1013 1013 1013 1016 1016 1019 1019 1019 1019 1019 1016 1013 1013 1010 1010 1010 1013 1013 1013 1016 1019 1022 1022 1022 1022 1025 1022 1022 1022 1025 1022 1022 1022 1019 1019 1019 1019 1016 1016 1016 1016 1013 1013 1010 1010 1010 1010 1010 1010 1010 1010 1010 1007 1007 1004 1004 1004 1004 1004 1001 1001 1001 995 993 990 990 987 987 987 987 990 993 993 993 990 990 990 990 990 987 987 990 990 990 987 987 987 987 984 984 981 981 981 981 978 978 978 978 978 976 978 976 978 976 976 976 976 978 976 976 976 976 976 976 976 976 976 973 973 973 970 970 970 970 970 973 973 973 970 970 965 965 962 959 959 959 959 959 959 959 957 954 952 952 952 949 949 952 952 952 952 952 952 952 952 954 957 957 959 959 959 962 962 962 962 962 962 962 962 965 965 968 968 968 970 970 970 970 970 970 970 973 973 973 973 976 978 981 981 984 984 987 987 990 993 993 993 993 993 993 993 995 995 995 995 995 995 993 990 987 984 984 981 981 978 978 976 976 973 973 973 973 973 973 970 970 970 970 968 968 965 962 962 959 959 959 959 959 959 959 957 957 952 949 949 946 944 941 939 939 936 933 933 931 931 928 928 928 926 923 921 919 919 916 916 914 914 911 909 909 909 907 907 904 902 899 899 899 899 897 897 897 895 895 892 890 890 890 890 888 888 888 886 886 886 883 881 881 881 881 883 822 820 820 818 816 815 813 813 811 809 809 807 807 807 807 805 805 803 803 801 801 801 801 801 801 805 807 805 809 811 809 807 809 809 809 811 811 811 813 813 813 815 815 816 818 820 822 824 826 828 830 830 832 834 836 838 840 842 844 844 844 0 0 0 0 0 0 0 0 0 0 0 0 0 0 0 0 0 0 0 0 0 0 0 0 0 0 0 0 0 0 0 0 0 0 0 3262 3262 3293 3324 3357 3357 3357 3357 3390 3390 3390 3357 3357 3357 3357 3357 3357 3357 3357 3390 3357 3357 3357 3390 3390 3357 3390 3390 3390 3390 3390 3390 3390 3357 3357 3357 3357 3390 3390 3390 3390 3390 3390 3357 3357 3357 3324 3324 3324 3293 3293 3293 3262 3262 3262 3231 3231 3231 3201 3172 3115 3087 3059 3059 3059 3059 3059 3033 3033 3033 3006 3006 2980 2980 2980 2955
    0 0 0 0 0 0 0 0 0 0 0 0 0 0 0 0 0 0 0 0 0 0 0 0 0 0 0 0 0 0 0 0 0 0 0 0 0 0 0 0 0 0 0 0 0 0 0 0 0 0 0 0 0 0 0 0 0 0 0 2469 2487 2505 2505 2487 2469 2469 2469 2451 2451 2384 2400 2384 2384 2351 2351 2351 2351 2351 2335 2335 2304 2289 2274 2274 2274 2274 2259 2274 2274 2274 2274 2274 2274 3172 3172 3172 3143 3143 3143 3143 3143 3143 3143 3143 3143 3172 3143 3172 3172 3172 3172 3172 3172 3143 3172 3172 3172 3172 3172 3172 3172 3172 3172 3172 3172 3172 3172 3172 3143 3143 3172 3172 3172 3172 1016 1016 1016 1013 1010 1007 1004 1001 1001 1001 998 998 998 998 998 998 995 995 995 995 995 995 995 998 998 1001 1004 1007 1007 1010 1010 1010 1010 1010 1013 1013 1013 1016 1016 1016 1016 1016 1016 1013 1013 1010 1010 1010 1010 1010 1010 1010 1013 1013 1016 1016 1019 1022 1022 1022 1019 1022 1022 1022 1022 1016 1016 1016 1016 1016 1013 1013 1013 1013 1013 1013 1010 1007 1010 1010 1010 1010 1007 1007 1007 1004 1004 1004 1001 1001 1001 1001 1001 998 995 993 990 990 987 987 987 987 987 987 990 990 990 987 990 990 990 987 987 987 987 987 987 987 984 984 984 981 981 978 978 978 978 976 976 976 976 976 976 976 976 976 976 976 976 976 976 976 976 976 976 976 976 973 973 973 973 970 970 970 968 970 968 968 970 970 970 970 965 965 962 959 957 957 957 957 957 957 957 954 952 952 949 949 949 949 949 952 952 952 952 952 952 952 954 954 957 957 959 959 959 962 962 962 962 962 962 962 965 965 965 968 968 968 970 970 970 970 970 970 970 970 973 973 973 976 978 981 981 984 987 990 990 990 993 993 993 993 993 993 995 995 995 995 995 995 993 990 987 984 984 981 981 981 981 978 976 976 976 976 973 973 973 973 973 970 970 970 968 965 962 962 962 959 959 959 959 959 959 959 959 954 952 952 949 946 944 941 939 939 936 936 933 931 931 928 928 926 923 921 921 919 919 916 916 914 911 911 909 909 909 907 904 902 902 899 899 899 897 897 897 897 895 892 890 890 890 890 888 888 888 886 886 886 886 883 881 881 883 883 881 824 822 820 818 816 815 813 811 811 809 809 809 809 809 807 807 807 807 805 805 805 805 805 807 807 809 809 811 811 811 809 809 811 811 811 811 811 813 813 815 815 816 818 820 822 824 826 826 828 830 830 832 836 838 840 842 842 844 844 844 0 0 0 0 0 0 0 0 0 0 0 0 0 0 0 0 0 0 0 0 0 0 0 0 0 0 0 0 0 0 0 0 0 0 0 3293 3262 3293 3324 3357 3357 3357 3357 3390 3390 3390 3390 3390 3390 3390 3390 3390 3390 3390 3390 3357 3324 3324 3390 3390 3357 3357 3390 3390 3390 3390 3390 3390 3390 3357 3357 3357 3357 3357 3390 3390 3357 3357 3357 3357 3357 3324 3324 3293 3293 3293 3262 3262 3262 3262 3231 3231 3231 3231 3201 3172 3087 3059 3059 3059 3059 3059 3059 3059 3033 3033 3006 2980 2980 2955 2955
    0 0 0 0 0 0 0 0 0 0 0 0 0 0 0 0 0 0 0 0 0 0 0 0 0 0 0 0 0 0 0 0 0 0 0 0 0 0 0 0 0 0 0 0 0 0 0 0 0 0 0 0 0 0 0 0 0 0 0 0 2487 2505 2505 2469 2469 2469 2451 2417 2400 2384 2367 2367 2384 2351 2335 2351 2351 2351 2335 2335 2304 2289 2274 2274 2259 2259 2259 2259 2274 2259 2274 2274 2274 3172 3172 3143 3143 3143 3143 3143 3143 3143 3143 3143 3143 3143 3143 3172 3172 3172 3172 3172 3172 3143 3143 3143 3143 3143 3143 3143 3172 3172 3172 3172 3172 3172 3172 3172 3143 3143 3172 3172 3172 3172 1013 1010 1013 1013 1004 995 995 995 995 995 995 995 993 993 993 993 993 993 993 993 993 993 995 995 995 998 1001 1004 1007 1007 1010 1010 1010 1010 1010 1010 1013 1013 1013 1013 1013 1013 1016 1013 1013 1010 1007 1010 1007 1007 1010 1010 1010 1013 1013 1016 1016 1019 1019 1019 1019 1019 1022 1019 1016 1016 1016 1013 1013 1013 1013 1010 1013 1013 1013 1013 1010 1007 1007 1007 1007 1007 1004 1004 1004 1001 1001 1001 1001 1001 1001 998 998 995 993 990 987 987 987 984 984 987 987 987 987 987 987 987 987 987 987 987 987 987 987 987 987 984 984 984 981 981 978 978 978 976 976 976 976 976 976 976 976 976 976 976 976 976 976 976 976 976 973 973 973 970 973 970 973 970 970 968 968 968 968 968 965 965 968 968 968 965 965 962 962 959 959 954 954 954 954 954 952 952 949 949 949 949 946 949 949 949 952 952 952 949 952 952 952 954 954 957 959 959 959 959 959 962 962 962 962 962 962 962 965 965 968 968 968 968 968 970 970 970 970 970 970 973 973 973 976 978 981 984 987 987 990 990 993 993 993 993 993 995 995 995 995 995 995 995 993 990 987 984 984 981 981 981 981 981 978 978 976 976 976 973 973 973 973 973 970 970 970 968 965 962 962 962 959 959 959 959 959 959 959 954 954 952 949 949 946 941 941 939 939 936 933 933 931 928 928 926 926 923 921 921 919 916 916 914 911 911 911 909 909 907 907 904 902 899 902 899 899 899 897 897 895 895 892 892 890 890 888 888 888 888 886 886 883 881 881 881 881 881 881 883 826 822 820 818 816 815 813 813 811 811 811 809 811 809 811 809 807 809 807 807 807 807 807 809 809 811 811 811 811 809 811 811 811 813 813 813 813 815 815 816 818 820 822 824 826 826 828 828 830 832 834 836 838 838 842 842 844 844 0 0 0 0 0 0 0 0 0 0 0 0 0 0 0 0 0 0 0 0 0 0 0 0 0 0 0 0 0 0 0 0 0 0 0 0 3293 3293 3293 3357 3357 3357 3357 3390 3390 3390 3390 3390 3390 3390 3390 3357 3357 3357 3324 3324 3324 3324 3324 3324 3324 3324 3324 3357 3390 3357 3390 3390 3390 3390 3390 3357 3357 3357 3357 3357 3357 3357 3357 3357 3357 3324 3324 3324 3293 3293 3293 3262 3262 3262 3262 3262 3262 3262 3231 3231 3201 3115 3059 3059 3033 3059 3059 3059 3059 3033 3033 3006 3006 2980 2955 2930
    0 0 0 0 0 0 0 0 0 0 0 0 0 0 0 0 0 0 0 0 0 0 0 0 0 0 0 0 0 0 0 0 0 0 0 0 0 0 0 0 0 0 0 0 0 0 0 0 0 0 0 0 0 0 0 0 0 0 0 0 0 2505 2487 2469 2451 2451 2451 2400 2400 2384 2384 2384 2384 2351 2351 2351 2335 2335 2335 2320 2289 2289 2274 2274 2274 2274 2274 2274 2274 2274 2274 2274 2274 3172 3172 3172 3143 3143 3115 3143 3143 3115 3115 3143 3143 3143 3143 3143 3172 3172 3172 3143 3172 3143 3143 3143 3143 3143 3143 3143 3143 3172 3172 3172 3172 3172 3172 3172 3143 3172 3172 3172 3115 1001 998 998 998 995 995 990 993 990 990 990 993 990 990 990 990 990 990 990 990 990 990 993 993 993 993 995 998 1001 1004 1007 1007 1007 1007 1010 1010 1010 1010 1013 1013 1013 1013 1013 1013 1013 1010 1010 1007 1007 1007 1007 1007 1007 1007 1010 1013 1013 1013 1013 1016 1016 1016 1016 1019 1019 1016 1013 1013 1013 1013 1013 1013 1010 1010 1013 1010 1010 1007 1007 1007 1007 1007 1004 1004 1001 1001 1001 1001 998 998 998 998 998 995 993 990 987 984 984 984 984 984 984 984 987 987 987 987 987 987 987 987 987 987 987 987 987 984 984 984 984 981 978 976 976 976 976 973 973 973 973 973 976 973 976 976 976 976 976 976 973 973 973 970 970 970 968 968 968 968 968 968 968 965 965 965 965 965 965 965 965 965 965 962 962 962 959 957 952 952 952 952 949 946 946 946 946 946 946 946 946 949 949 949 949 952 949 952 952 952 952 954 957 957 959 959 959 959 962 962 962 962 962 962 962 965 965 968 968 968 968 968 970 970 970 970 970 970 970 973 973 976 976 978 984 984 987 990 990 993 993 993 993 993 995 995 995 995 995 995 995 993 987 987 984 984 984 981 984 981 981 981 978 978 978 976 976 976 976 973 973 973 973 970 970 968 965 962 962 962 959 959 959 959 959 959 957 954 952 949 949 946 944 941 941 939 939 936 933 933 931 928 926 926 923 923 921 919 916 916 914 914 911 911 911 909 907 907 904 902 902 902 899 899 899 897 897 895 895 892 892 890 890 888 888 888 888 886 886 883 881 881 879 881 881 881 883 828 826 822 818 818 816 815 815 815 813 813 813 813 813 813 811 811 811 811 811 811 811 811 811 811 811 811 813 811 809 811 811 811 813 813 813 815 816 816 818 818 820 822 824 826 828 828 828 830 832 834 836 838 840 842 842 844 844 0 0 0 0 0 0 0 0 0 0 0 0 0 0 0 0 0 0 0 0 0 0 0 0 0 0 0 0 0 0 0 0 0 0 0 0 3324 3293 3324 3357 3357 3357 3357 3390 3390 3390 3390 3390 3390 3390 3390 3324 3324 3324 3324 3324 3324 3324 3324 3357 3324 3324 3324 3357 3357 3357 3357 3357 3390 3390 3390 3357 3357 3357 3357 3357 3357 3357 3357 3324 3324 3324 3293 3293 3293 3293 3293 3262 3262 3262 3262 3231 3231 3231 3231 3201 3143 3115 3059 3059 3059 3059 3087 3059 3059 3033 3033 3006 3006 2980 2955 2930
    0 0 0 0 0 0 0 0 0 0 0 0 0 0 0 0 0 0 0 0 0 0 0 0 0 0 0 0 0 0 0 0 0 0 0 0 0 0 0 0 0 0 0 0 0 0 0 0 0 0 0 0 0 0 0 0 0 0 0 0 2469 2487 2469 2451 2434 2417 2417 2400 2400 2384 2384 2367 2384 2351 2351 2351 2335 2335 2335 2320 2304 2289 2274 2274 2274 2274 2274 2274 2274 2274 2274 2274 2274 0 3143 3143 3115 3115 3115 3143 3115 3115 3115 3143 3143 3143 3143 3143 3143 3143 3143 3143 3143 3143 3143 3143 3143 3143 3143 3143 3143 3172 3172 3172 3172 3172 3172 3143 3143 3172 3172 3115 1004 995 995 995 995 993 993 990 990 987 987 987 987 987 987 984 984 984 987 987 987 990 990 990 990 993 993 993 995 998 1001 1004 1007 1007 1007 1007 1010 1010 1010 1010 1013 1013 1013 1013 1013 1013 1010 1010 1007 1007 1007 1004 1007 1004 1004 1007 1010 1010 1010 1013 1013 1013 1016 1016 1016 1016 1013 1013 1013 1013 1013 1013 1010 1010 1010 1010 1010 1007 1004 1004 1007 1007 1004 1004 1001 1001 1001 1001 998 998 998 998 998 995 993 990 987 984 984 984 984 981 984 984 984 984 987 987 987 987 987 987 987 987 987 984 984 984 984 984 981 981 978 978 976 976 976 973 973 973 973 973 973 973 973 973 973 973 973 973 973 973 973 970 968 968 965 965 965 965 965 965 965 965 962 962 962 962 962 962 962 962 962 962 962 962 959 959 957 952 949 949 949 946 946 944 944 946 944 946 944 946 946 946 949 949 952 949 952 952 952 952 954 957 959 959 959 959 959 959 959 962 962 962 962 962 965 965 965 965 968 968 968 968 968 968 970 970 970 970 973 973 976 976 978 981 984 987 990 990 990 993 993 995 993 995 995 995 995 995 995 995 993 987 987 987 984 984 984 984 984 984 981 981 981 981 978 978 978 978 976 976 973 973 973 970 968 968 965 962 962 962 962 962 962 962 959 957 957 957 952 949 949 946 946 944 941 941 939 936 936 931 931 928 926 926 926 923 921 919 919 916 914 914 911 911 909 909 907 904 902 902 902 899 899 899 897 897 897 895 892 892 892 890 890 890 888 888 888 886 883 881 881 879 881 881 881 883 888 890 824 820 818 816 816 816 815 815 815 815 813 813 813 813 813 813 813 813 813 813 813 813 813 813 813 813 813 813 811 813 813 815 815 815 815 816 818 818 818 820 822 824 826 828 828 830 830 832 834 836 838 840 842 842 844 0 0 0 0 0 0 0 0 0 0 0 0 0 0 0 0 0 0 0 0 0 0 0 0 0 0 0 0 0 0 0 0 0 0 0 0 0 3293 3293 3324 3357 3357 3357 3390 3390 3357 3357 3357 3390 3390 3390 3324 3324 3324 3357 3324 3324 3324 3324 3324 3357 3357 3357 3357 3357 3390 3357 3357 3357 3357 3390 3390 3357 3357 3357 3357 3357 3357 3357 3357 3324 3324 3324 3293 3293 3262 3262 3262 3262 3262 3262 3262 3231 3231 3231 3201 3201 3172 3143 3115 3115 3059 3087 3087 3059 3059 3033 3033 3006 3006 2980 2930 2930
    0 0 0 0 0 0 0 0 0 0 0 0 0 0 0 0 0 0 0 0 0 0 0 0 0 0 0 0 0 0 0 0 0 0 0 0 0 0 0 0 0 0 0 0 0 0 0 0 0 0 0 0 0 0 0 0 0 0 2487 2469 2469 2469 2469 2451 2434 2434 2417 2400 2400 2384 2367 2367 2351 2351 2351 2351 2335 2335 2320 2320 2304 2289 2274 2274 2274 2274 2274 2274 2274 2274 2274 2274 0 0 3115 3115 3115 3115 3115 3115 3115 3115 3115 3115 3115 3143 3143 3143 3143 3172 3143 3143 3143 3143 3143 3143 3143 3143 3143 3143 3143 3172 3172 3143 3172 3172 3172 3143 3143 3143 3143 3143 1004 995 995 993 993 993 993 987 987 987 984 984 984 981 981 981 981 981 984 984 984 987 987 987 990 990 990 990 993 993 995 998 1001 1001 1004 1007 1007 1007 1010 1010 1010 1013 1013 1013 1010 1013 1010 1010 1007 1007 1004 1004 1004 1001 1001 1004 1004 1004 1007 1010 1010 1013 1013 1013 1013 1013 1013 1013 1010 1010 1010 1010 1010 1007 1010 1007 1007 1004 1001 1004 1004 1004 1004 1001 1001 1001 1001 998 998 995 995 995 995 993 987 987 987 984 984 981 984 981 984 984 984 984 984 987 987 987 987 984 984 984 984 984 984 984 984 981 981 981 978 976 976 973 973 973 973 970 970 970 970 973 973 973 970 970 973 970 970 970 968 968 965 965 965 965 962 962 962 962 962 962 962 962 959 962 959 962 959 962 962 959 959 959 959 957 952 946 946 946 946 944 944 944 944 944 944 944 944 946 946 946 949 949 952 949 952 952 952 952 954 957 957 959 959 959 959 959 959 962 962 962 962 962 962 962 965 965 965 965 965 968 968 968 968 970 970 970 970 973 976 976 978 981 984 987 987 990 990 993 993 993 993 995 995 995 995 998 995 995 995 990 990 987 987 984 984 984 984 984 984 981 981 981 981 981 978 978 978 976 976 973 973 970 970 968 965 962 962 962 962 962 962 962 962 962 959 959 954 952 952 952 949 946 944 944 941 939 936 933 933 928 928 926 926 923 923 921 919 919 916 916 914 914 911 909 907 907 904 902 902 902 902 899 899 897 897 895 895 895 892 890 890 890 888 888 888 886 883 881 881 879 879 881 881 883 888 890 828 822 822 820 818 818 816 816 816 816 815 815 815 815 815 813 813 813 813 813 813 813 813 813 813 813 815 813 813 813 813 815 815 816 816 818 818 818 820 820 824 824 826 828 828 830 830 832 834 836 840 842 842 842 844 0 0 0 0 0 0 0 0 0 0 0 0 0 0 0 0 0 0 0 0 0 0 0 0 0 0 0 0 0 0 0 0 0 0 0 0 0 3293 3293 3324 3357 3357 3357 3390 3390 3390 3390 3390 3357 3390 3390 3324 3324 3324 3357 3324 3324 3324 3324 3324 3324 3357 3324 3324 3357 3390 3390 3390 3357 3357 3357 3357 3357 3357 3357 3357 3357 3357 3357 3357 3324 3324 3324 3293 3293 3293 3293 3262 3262 3262 3262 3262 3231 3231 3231 3201 3172 3143 3115 3087 3087 3087 3087 3087 3059 3059 3033 3033 3006 3006 2955 2930 2905
    0 0 0 0 0 0 0 0 0 0 0 0 0 0 0 0 0 0 0 0 0 0 0 0 0 0 0 0 0 0 0 0 0 0 0 0 0 0 0 0 0 0 0 0 0 0 0 0 0 0 0 0 0 0 0 0 2487 2487 2487 2469 2469 2469 2469 2451 2451 2434 2434 2417 2417 2400 2384 2367 2367 2351 2335 2335 2335 2320 2320 2304 2304 2289 2289 2274 2274 2274 2274 2274 2274 0 2274 0 0 0 3087 3087 3087 3087 3087 3115 3115 3115 3115 3143 3143 3143 3143 3143 3143 3143 3143 3115 3143 3115 3143 3143 3115 3143 3143 3143 3143 3172 3172 3143 3143 3143 3172 3143 3143 3172 3143 990 993 993 993 990 990 990 990 987 987 984 981 981 981 981 978 978 978 978 981 981 981 984 984 987 987 987 987 987 990 990 993 995 995 998 1001 1004 1004 1007 1007 1010 1010 1010 1010 1010 1010 1010 1010 1010 1007 1007 1004 1001 1001 1001 1001 1001 1004 1004 1004 1007 1010 1010 1010 1010 1013 1013 1010 1010 1010 1010 1010 1010 1010 1007 1007 1007 1004 1004 1001 1001 1004 1004 1001 1001 1001 998 998 998 995 993 995 993 990 987 984 984 984 981 981 981 981 981 984 984 984 984 984 987 984 984 984 984 984 984 984 984 984 984 981 981 981 978 978 976 973 973 970 970 970 970 970 970 968 970 970 970 968 968 968 968 970 968 965 965 965 965 962 962 962 962 962 962 962 959 959 959 959 959 959 959 959 959 959 959 959 959 957 954 949 946 944 944 944 944 944 944 944 944 944 944 944 946 946 946 949 949 952 949 949 952 952 952 954 954 957 957 957 959 959 959 959 959 959 962 962 962 962 962 962 962 962 965 965 965 965 965 968 968 970 970 970 973 973 976 978 981 984 984 987 990 990 993 993 995 995 995 995 998 998 998 998 995 995 993 990 990 987 987 987 987 987 987 987 984 984 984 984 981 981 981 978 978 976 976 973 973 970 970 968 965 962 962 962 962 962 962 965 962 962 959 957 952 954 954 952 949 946 946 944 939 939 936 933 931 928 928 928 926 923 923 923 921 919 919 916 916 911 909 909 907 907 904 904 904 902 902 899 899 897 897 897 895 895 892 890 890 890 888 888 886 883 881 881 881 879 881 881 881 881 888 832 826 824 822 822 820 820 818 818 818 816 816 815 815 815 815 815 813 813 813 813 813 813 813 813 813 815 813 813 813 813 816 816 816 816 818 820 820 822 822 824 826 828 828 828 830 830 834 834 836 840 842 844 842 844 844 0 0 0 0 0 0 0 0 0 0 0 0 0 0 0 0 0 0 0 0 0 0 0 0 0 0 0 0 0 0 0 0 0 0 0 0 3293 3293 3324 3357 3357 3357 3357 3357 3357 3357 3390 3357 3390 3390 3324 3324 3324 3357 3324 3324 3324 3293 3293 3324 3357 3324 3324 3357 3357 3390 3390 3357 3357 3357 3357 3357 3357 3357 3357 3357 3357 3357 3357 3357 3324 3324 3293 3293 3293 3262 3262 3262 3293 3262 3262 3231 3231 3201 3201 3172 3143 3143 3115 3115 3087 3087 3059 3059 3033 3033 3006 3006 2980 2955 2930 2905
    0 0 0 0 0 0 0 0 0 0 0 0 0 0 0 0 0 0 0 0 0 0 0 0 0 0 0 0 0 0 0 0 0 0 0 0 0 0 0 0 0 0 0 0 0 0 0 0 0 0 0 0 0 0 0 2505 2487 2505 2487 2469 2469 2469 2469 2451 2451 2451 2434 2417 2417 2400 2384 2384 2367 2351 2335 2335 2320 2320 2304 2304 2289 2274 2274 2274 2274 2274 2274 2274 0 0 0 0 0 0 3059 3087 3087 3087 3087 3087 3115 3115 3115 3115 3115 3115 3115 3143 3143 3143 3115 3115 3115 3115 3115 3115 3115 3115 3115 3143 3143 3143 3143 3143 3143 3143 3143 3143 3172 3172 987 990 993 990 990 990 987 987 987 984 984 981 978 978 978 978 978 978 978 978 978 978 978 981 981 984 984 984 987 987 990 990 993 993 993 995 998 1001 1004 1004 1004 1007 1007 1010 1010 1010 1010 1010 1010 1010 1007 1007 1004 1001 1001 998 1001 1001 1001 1004 1004 1004 1007 1010 1010 1010 1010 1010 1010 1010 1010 1010 1010 1010 1007 1007 1007 1004 1004 1001 1001 1001 1001 1001 1001 1001 998 998 998 995 993 990 990 990 987 987 981 981 981 978 978 978 978 978 981 984 984 984 984 984 984 984 984 984 984 984 984 984 981 981 981 981 978 978 976 973 973 973 970 970 970 968 968 968 968 968 968 968 965 965 965 965 965 965 965 965 962 962 962 962 962 962 959 959 959 959 959 957 957 957 957 957 957 957 957 957 957 954 952 949 946 944 944 941 944 941 941 941 944 944 944 944 944 946 946 946 946 949 952 949 949 949 952 952 952 954 957 957 957 959 959 959 959 959 959 959 959 962 962 962 962 962 962 962 962 962 965 965 965 968 968 970 970 973 973 976 978 981 984 984 987 987 990 993 993 995 995 995 998 998 998 1001 998 998 995 993 993 990 990 987 987 987 990 990 987 984 984 984 984 984 981 981 978 978 978 976 976 973 973 970 970 968 965 965 962 962 962 962 1028 1025 1025 1025 1025 1025 957 954 954 949 949 946 946 941 941 939 936 933 931 931 928 928 926 923 923 921 921 919 919 916 914 914 911 909 907 907 904 904 902 902 899 899 899 897 897 895 895 892 892 890 890 890 888 888 886 883 881 881 881 881 881 881 881 881 832 828 826 824 822 820 820 820 820 820 818 816 816 816 816 815 815 813 813 813 813 813 813 813 813 815 815 813 815 815 815 816 816 818 818 820 820 820 822 822 824 826 828 828 830 832 832 834 834 836 840 840 842 842 842 844 0 0 0 0 0 0 0 0 0 0 0 0 0 0 0 0 0 0 0 0 0 0 0 0 0 0 0 0 0 0 0 0 0 0 0 0 3293 3293 3324 3357 3357 3357 3357 3357 3357 3357 3357 3357 3357 3357 3324 3324 3357 3357 3357 3357 3357 3324 3324 3357 3357 3324 3324 3357 3357 3357 3390 3357 3357 3357 3357 3357 3357 3357 3357 3357 3357 3357 3357 3324 3324 3324 3293 3293 3262 3262 3293 3262 3293 3293 3262 3262 3231 3231 3201 3172 3143 3115 3115 3115 3087 3087 3087 3033 3033 3006 3006 2980 2980 2955 2930 2930</data></dframe>
</opencv_storage>
