<?xml version="1.0"?>
<opencv_storage>
<dframe type_id="opencv-matrix">
  <rows>33</rows>
  <cols>640</cols>
  <dt>w</dt>
  <data>
    0 0 0 0 0 0 0 0 0 0 0 0 0 0 0 0 0 0 0 0 0 0 0 0 0 0 0 0 0 0 0 0 0 0 0 0 0 0 0 0 0 0 0 0 0 0 0 0 0 0 0 0 0 0 0 0 0 0 0 0 0 0 0 0 0 0 0 0 0 0 0 0 0 0 0 0 0 0 0 0 0 0 0 0 0 0 0 0 0 0 0 0 0 0 0 0 0 0 0 0 0 0 0 0 0 0 0 0 0 0 0 0 0 0 0 0 0 0 0 0 0 0 2955 2955 2980 2980 2980 2980 2980 2980 2980 2980 2980 2980 2980 3006 3006 3006 3006 2980 2980 2980 2980 2980 2980 2980 2955 2955 2955 2955 2955 2955 2980 2955 2955 2955 2955 2955 2955 2955 2955 2955 2955 2955 2955 2955 2955 2955 2955 2955 2955 2955 2955 2955 2955 2955 2955 2955 2955 2955 2955 2955 2955 2955 2955 2955 2955 2955 2955 2955 2955 2955 2955 2955 2955 2955 2955 2955 2955 2955 2955 2980 2980 2980 2955 2955 2955 2955 2955 2955 2930 2930 2930 2930 2930 2930 2930 2930 2930 2930 2930 2930 2930 2930 2930 2930 2930 2930 2930 2930 2930 2930 2930 2930 2955 2955 2955 2955 2955 2955 2955 2955 2930 2930 2930 2930 2930 2955 2955 2955 2955 2955 2955 2955 2955 2955 2955 2955 2955 2955 2955 2955 2955 2980 2980 2980 3006 3006 2980 2980 2980 2980 2980 3006 2082 2082 2069 2057 2045 2033 2021 2009 1998 1998 1986 1986 1986 1975 1975 1975 1975 1975 1964 1964 1964 1952 1952 1952 1952 1952 1952 1941 1941 1941 1931 1931 1931 1931 1931 1931 1931 1931 1931 1920 1920 1920 1909 1909 1909 1909 1899 1899 1899 1899 1899 1899 1899 1899 1899 1899 1899 1899 1888 1899 1899 1888 1888 1888 1888 1888 1888 1888 1888 1888 1888 1888 1888 1888 1888 1888 1888 1888 1888 1888 1888 1888 1888 1888 1888 1888 1899 1899 1899 1899 1899 1909 1909 1909 1909 1920 1920 1920 1920 1920 1920 1920 1920 1931 1931 1931 1931 1931 1931 1931 1931 1931 1941 1941 1952 1952 1964 1964 1964 1975 1975 1975 1975 1986 1986 1998 2009 2009 2009 2021 2033 2033 2045 2057 2057 2069 2069 0 0 0 0 0 2955 2980 2980 2980 2980 2980 3006 3006 3006 3006 3006 3006 3006 2980 2980 2980 2980 2980 2980 2980 2980 2980 2980 2980 2980 2980 2980 2980 2980 2980 2980 2980 2980 3006 3006 3006 3006 3006 3006 2980 2980 2980 2980 2980 2980 2980 2980 2980 2980 2980 2980 2980 2980 2980 2980 2980 2980 2980 2955 2955 2955 2980 2980 2980 3006 2980 2980 2980 2980 2980 2980 2980 2980 2980 2980 2980 2980 2980 2980 2980 2980 2980 2955 2980 2980 2955 2955 2955 2955 2955 2980 2980 2980 2980 2980 2980 2980 2980 2980 2980 2955 2955 2955 2980 2980 2955 2955 2980 2980 2980 2980 2980 3006 3033 3033 3006 3006 3006 3006 3006 2980 2980 2955 2955 2955 2955 2955 2980 2955 2980 2955 2955 2955 2955 2955 2955 2955 2955 2955 2955 2980 2980 2980 2980 3006 3006 3006 3006 2980 2955 2955 2930 2930 3006 2955 2955 2955 2980 2980 2980 2955 2955 2930 2955 2930 2955 2955 2955 2955 2980 2980 3006 3006 3006 2980 2955 2955 2955 2955 2930 2930 2930 2955 2955 2980 2980 2980 2980 3006 2980 2980 3006 2980 2980 2955 2980 2955 2955 2955 2955 2955 2955 2955 2955 2980 2980 3006 3006 3006 3033 3033 3033 3033 3033 3033 3033 3006 3033 3033 3033 3033 3033 3006 3006
    0 0 0 0 0 0 0 0 0 0 0 0 0 0 0 0 0 0 0 0 0 0 0 0 0 0 0 0 0 0 0 0 0 0 0 0 0 0 0 0 0 0 0 0 0 0 0 0 0 0 0 0 0 0 0 0 0 0 0 0 0 0 0 0 0 0 0 0 0 0 0 0 0 0 0 0 0 0 0 0 0 0 0 0 0 0 0 0 0 0 0 0 0 0 0 0 0 0 0 0 0 0 0 0 0 0 0 0 0 0 0 0 0 0 0 0 0 0 0 0 0 0 2955 2980 2980 2980 2980 2980 2980 2980 2980 2980 3006 3006 3006 3006 3006 3006 3006 2980 2955 2955 2980 2980 2980 2980 2980 2955 2955 2980 2980 2980 2980 2955 2955 2980 2980 2980 2955 2955 2955 2980 2955 2955 2955 2955 2955 2980 2980 2980 2980 2980 2980 2980 2980 2980 2955 2955 2955 2955 2955 2955 2955 2955 2955 2955 2955 2955 2955 2955 2955 2955 2955 2955 2955 2955 2980 2955 2955 2955 2980 2980 2980 2980 2980 2980 2955 2955 2955 2955 2930 2930 2930 2930 2930 2955 2930 2955 2955 2955 2955 2955 2955 2955 2955 2955 2930 2955 2930 2930 2930 2930 2930 2955 2955 2955 2955 2955 2955 2955 2955 2955 2955 2955 2955 2930 2955 2930 2955 2955 2955 2955 2955 2955 2955 2955 2955 2955 2955 2955 2955 2955 2980 2980 2980 2980 3006 3006 3006 3006 3006 2980 3006 3006 3006 2082 2069 2069 2057 2045 2033 2021 2009 1998 1998 1986 1986 1986 1986 1975 1975 1975 1964 1964 1964 1952 1952 1952 1952 1952 1952 1941 1941 1941 1931 1931 1931 1931 1931 1931 1931 1931 1931 1920 1920 1920 1920 1909 1920 1909 1899 1899 1899 1899 1909 1899 1899 1899 1899 1899 1899 1899 1899 1899 1899 1888 1888 1888 1888 1888 1888 1888 1888 1888 1888 1888 1888 1888 1888 1888 1888 1888 1888 1888 1888 1888 1888 1899 1888 1899 1899 1899 1899 1909 1909 1909 1909 1909 1920 1920 1920 1920 1920 1920 1920 1920 1931 1931 1931 1931 1931 1931 1931 1931 1931 1931 1941 1941 1952 1952 1964 1964 1964 1975 1975 1975 1975 1986 1986 1998 2009 2009 2009 2021 2033 2045 2045 2057 2057 2069 2069 0 0 0 0 2930 2955 2955 2980 2980 2980 3006 3006 3006 3006 3006 3033 3033 3006 2980 3006 3006 3006 2980 2980 2980 2980 2980 3006 2980 2980 2980 2980 2980 2980 2980 2980 2980 3006 3006 3006 3006 3033 3006 3006 3006 2980 2980 2980 2980 2980 2980 2980 2980 2980 2980 2980 3006 3006 3006 2980 3006 2980 2980 2980 2955 2980 2980 2980 2980 3006 3006 2980 3006 3006 3006 2980 2980 2980 2980 2980 2980 2980 2980 2980 2980 2980 2980 2980 2980 2980 2980 2955 2955 2955 2955 2980 2980 2980 2980 2980 2980 2980 2980 2980 2980 2980 2980 2980 2980 2980 2980 2980 2980 2980 2980 3006 3006 3033 3033 3059 3033 3033 3033 3033 3006 3006 2980 2955 2980 2980 2980 2980 2980 2980 2980 2980 2955 2980 2980 2980 2955 2955 2955 2980 2980 2980 3033 3033 3033 3006 3006 3006 3006 2980 2980 2955 2955 2955 3006 2980 2955 2955 2980 2980 2980 2980 2955 2955 2955 2955 2955 2955 2955 2980 2980 2980 3006 3006 3006 2980 2955 2955 2980 2955 2930 2930 2955 2955 2955 2980 2980 3006 2980 2980 2980 2980 3006 3006 3006 2980 2980 2980 3033 2980 2980 2980 2955 2955 2955 2980 3006 3006 3006 3006 3033 3033 3033 3033 3033 3033 3033 3033 3033 3033 3033 3033 3033 3006 2980
    0 0 0 0 0 0 0 0 0 0 0 0 0 0 0 0 0 0 0 0 0 0 0 0 0 0 0 0 0 0 0 0 0 0 0 0 0 0 0 0 0 0 0 0 0 0 0 0 0 0 0 0 0 0 0 0 0 0 0 0 0 0 0 0 0 0 0 0 0 0 0 0 0 0 0 0 0 0 0 0 0 0 0 0 0 0 0 0 0 0 0 0 0 0 0 0 0 0 0 0 0 0 0 0 0 0 0 0 0 0 0 0 0 0 0 0 0 0 0 0 0 0 2980 2980 3006 3006 2980 2980 2980 2980 2980 2980 3006 3006 3006 3006 3006 3006 3006 2980 2980 2980 2980 2980 2980 2980 2980 2980 2980 2980 2980 2980 2980 2980 2980 2980 2980 3006 2980 2980 2980 2980 2980 2980 2980 2980 2980 3006 3006 3006 3006 3006 3006 3006 3006 2980 2980 2980 2980 2980 2980 2980 2955 2955 2955 2955 2955 2955 2955 2955 2955 2955 2955 2955 2955 2955 2980 2955 2980 2980 2980 2980 2980 2980 2980 2980 2955 2955 2955 2955 2930 2930 2930 2930 2930 2955 2955 2955 2955 2955 2955 2955 2955 2955 2955 2955 2955 2955 2955 2955 2955 2955 2955 2955 2980 2980 2955 2980 2980 2980 2980 2955 2955 2955 2955 2955 2955 2955 2955 2980 2955 2955 2955 2980 2955 2980 2980 2980 2980 2980 2980 2980 2980 3006 3006 3006 3006 3006 3006 3006 3006 3006 3006 3006 3006 2082 2069 2069 2045 2033 2033 2021 2009 2009 1998 1986 1986 1986 1986 1975 1975 1975 1975 1964 1964 1952 1952 1952 1952 1952 1952 1941 1941 1941 1941 1931 1931 1931 1931 1931 1931 1931 1931 1931 1931 1920 1920 1909 1909 1909 1899 1899 1909 1899 1909 1909 1899 1909 1899 1899 1899 1899 1899 1899 1899 1888 1888 1888 1888 1888 1888 1888 1888 1888 1888 1888 1888 1888 1888 1888 1888 1888 1888 1899 1899 1899 1899 1899 1899 1899 1899 1899 1899 1909 1909 1909 1909 1909 1920 1920 1920 1920 1920 1920 1920 1920 1931 1931 1931 1931 1931 1931 1931 1931 1931 1941 1941 1941 1952 1964 1964 1964 1964 1975 1975 1975 1986 1998 1998 1998 2009 2009 2021 2021 2045 2045 2057 2057 2057 2069 0 0 0 0 0 0 2980 2980 2980 2980 3006 3006 3033 3006 3033 3033 3033 3033 3033 2980 3006 3006 3006 2980 3006 3006 3006 3006 3006 2980 2980 2980 2980 2980 2980 2980 2980 2980 3006 3006 3006 3033 3033 3006 3006 3006 2980 2980 2980 2980 2980 2980 2980 2980 2980 3006 3006 3006 3006 3006 3006 3006 3006 2980 2980 2980 2980 2980 3006 3006 3006 3006 3033 3006 3006 3006 2980 2980 2980 3006 2980 2980 2980 2980 2980 2980 2980 2980 2980 2980 2980 2980 2980 2980 2980 2980 2980 2980 2980 2980 3006 2980 2980 3006 3006 3006 3006 2980 2980 2980 2980 2980 2980 2980 2980 2980 3006 3006 3033 3033 3059 3033 3033 3033 3033 3033 3033 3006 2980 2980 2980 2980 2980 2980 2980 2980 2955 2955 2980 2980 2980 2980 2955 2955 2980 3033 3033 3033 3033 3033 3006 3006 3006 3006 2980 2980 2955 2955 3006 3006 3006 2980 2980 2980 3006 3006 2980 2980 2955 2955 2955 2980 2980 2980 2980 3006 3006 3006 3033 3006 3006 2980 2980 3006 2980 2955 2930 2955 2955 2980 2980 2955 3006 3006 3006 3006 3006 3006 3006 3006 3006 3006 3006 3033 3033 3006 3006 3006 2980 3033 3033 3006 3033 3033 3006 3033 3006 3033 3033 3059 3059 3033 3033 3033 3033 3033 3033 3006 2980 2980
    0 0 0 0 0 0 0 0 0 0 0 0 0 0 0 0 0 0 0 0 0 0 0 0 0 0 0 0 0 0 0 0 0 0 0 0 0 0 0 0 0 0 0 0 0 0 0 0 0 0 0 0 0 0 0 0 0 0 0 0 0 0 0 0 0 0 0 0 0 0 0 0 0 0 0 0 0 0 0 0 0 0 0 0 0 0 0 0 0 0 0 0 0 0 0 0 0 0 0 0 0 0 0 0 0 0 0 0 0 0 0 0 0 0 0 0 0 0 0 0 0 3006 3006 3006 3006 3006 2980 2980 3006 2980 3006 3006 3006 3006 3006 3006 3006 3006 2980 2980 2980 2980 2980 2980 2980 2980 2980 2980 2980 2980 2980 3006 3006 2980 2980 2980 2980 3006 2980 2980 2980 2980 2980 2980 2980 2980 2980 3006 3006 3033 3033 3033 3006 3033 3006 3006 3006 2980 2980 2980 2980 2980 2955 2955 2955 2980 2980 2980 2955 2955 2955 2955 2955 2955 2955 2955 2980 2955 2980 2980 2980 3006 3006 3006 2980 2980 2955 2955 2955 2955 2930 2930 2930 2930 2955 2955 2955 2955 2955 2955 2980 2955 2955 2955 2955 2955 2955 2980 2980 2955 2955 2955 2980 2980 2980 2980 2980 2980 2980 2980 2980 2980 2955 2955 2955 2955 2955 2955 2955 2980 2980 2980 2980 2980 2980 2980 2980 2980 2980 2980 3006 2980 3006 3006 3006 3006 3006 3006 3006 3006 3006 3006 3006 3033 3033 2082 2069 2069 2045 2033 2033 2021 2021 2009 1998 1986 1986 1986 1975 1975 1975 1964 1964 1964 1964 1952 1952 1952 1952 1952 1952 1941 1941 1941 1941 1931 1931 1931 1931 1931 1931 1931 1931 1931 1931 1931 1920 1920 1920 1909 1909 1909 1909 1909 1909 1909 1909 1909 1909 1909 1909 1909 1899 1899 1899 1899 1899 1888 1888 1899 1888 1888 1888 1899 1888 1888 1888 1888 1899 1899 1899 1899 1888 1899 1899 1899 1899 1899 1899 1899 1899 1909 1899 1909 1909 1909 1920 1920 1920 1920 1920 1920 1920 1931 1920 1931 1931 1931 1931 1931 1931 1931 1931 1931 1931 1941 1941 1941 1952 1952 1964 1964 1964 1975 1975 1975 1998 2009 1998 2009 2009 2021 2021 2033 2045 2057 2057 2057 2069 2069 0 0 0 0 0 0 3006 3006 3006 3006 3006 3033 3033 3006 3033 3033 3033 3033 3033 3006 3006 3006 3006 3006 3006 3006 3006 3006 3006 3006 3006 3006 2980 2980 2980 3006 2980 2980 3033 3006 3033 3033 3033 3033 3033 3006 3006 3006 2980 2980 2980 2980 2980 2980 2980 3006 3006 3006 3006 3006 3006 3006 3006 3006 3006 3006 3006 3006 3006 3006 3006 3006 3006 3006 3006 3006 3006 3006 3033 3033 3006 2980 2980 2980 3006 3006 2980 2980 2980 2980 2980 2980 2980 2980 2980 2980 2980 2980 2980 3006 3006 3006 3006 3006 3006 3006 3006 2980 2980 2980 2980 2980 2980 2980 3006 3006 3006 3006 3033 3033 3059 3059 3059 3059 3059 3059 3033 3033 2980 3006 2980 2980 2980 2980 2980 2980 2955 2955 2980 2980 2980 2980 2980 2980 3006 3033 3059 3033 3033 3033 3006 3006 3006 3006 2980 2980 2980 2980 3006 3006 2980 2980 2980 2980 3006 2980 2980 2980 2955 2955 2955 2980 2980 2980 2980 3006 3006 3006 3006 3006 3006 2980 3006 3006 3006 2980 2955 2955 2955 2980 2980 2980 3006 3006 3006 3006 3033 3033 3033 3033 3006 3006 3033 3033 3033 3033 3006 3006 3006 3006 3006 3006 3033 3033 3006 3006 3006 3006 3006 3059 3059 3033 3033 3033 3033 3033 3006 3006 2980 2980
    0 0 0 0 0 0 0 0 0 0 0 0 0 0 0 0 0 0 0 0 0 0 0 0 0 0 0 0 0 0 0 0 0 0 0 0 0 0 0 0 0 0 0 0 0 0 0 0 0 0 0 0 0 0 0 0 0 0 0 0 0 0 0 0 0 0 0 0 0 0 0 0 0 0 0 0 0 0 0 0 0 0 0 0 0 0 0 0 0 0 0 0 0 0 0 0 0 0 0 0 0 0 0 0 0 0 0 0 0 0 0 0 0 0 0 0 0 0 0 0 0 2955 2980 3006 3006 3006 3006 3006 3006 3006 3006 3006 3006 3006 3006 3006 3006 3006 2980 2980 2980 2980 2980 2980 2980 2980 2980 2980 2980 2980 3006 3006 3006 3006 3006 3006 3006 3033 3033 2980 2980 2980 2980 2980 3006 2980 2980 3033 3033 3033 3033 3033 3033 3033 3033 3033 3006 2980 2980 2980 2980 2980 2980 2955 2980 2980 2980 2980 2955 2955 2980 2980 2955 2955 2980 2980 2980 2980 2980 2980 3006 3006 3006 3006 3006 3006 2980 2980 2980 2955 2930 2930 2930 2955 2955 2955 2980 2955 2980 2980 2980 2980 2980 2980 2980 2980 2980 3006 2980 2980 2980 2980 2980 2980 3006 2980 2980 2980 2980 2980 3006 2980 2980 2980 2980 2980 2980 2980 2980 3006 2980 2980 2980 2980 2980 2980 2980 3006 3006 3006 3006 3006 3006 3006 3006 3006 3006 3006 3006 3033 3006 3006 3006 3033 3033 2082 2069 2069 2057 2045 2033 2033 2021 2009 1998 1986 1986 1975 1975 1975 1975 1975 1964 1964 1964 1952 1952 1952 1952 1952 1952 1941 1941 1941 1941 1941 1931 1931 1931 1931 1931 1931 1931 1931 1931 1931 1931 1931 1931 1920 1909 1909 1909 1909 1909 1909 1909 1909 1909 1909 1909 1909 1909 1909 1909 1899 1899 1899 1899 1899 1899 1888 1899 1899 1899 1899 1888 1888 1888 1888 1888 1888 1888 1899 1899 1899 1899 1899 1909 1909 1909 1909 1909 1909 1909 1920 1920 1920 1920 1920 1920 1920 1920 1920 1931 1931 1931 1931 1931 1931 1931 1931 1931 1941 1941 1941 1952 1952 1964 1964 1964 1964 1975 1975 1975 1986 1998 2009 2009 2009 2009 2021 2021 2033 2045 2057 2057 2057 2069 2069 0 0 0 0 0 0 0 3006 3006 3006 3006 3033 3033 3006 3006 3033 3033 3059 3059 3006 3006 3033 3033 3006 3006 3006 3006 3006 3006 3006 3006 3006 3006 3006 3006 3006 3006 3006 3006 3033 3033 3033 3033 3033 3033 3033 3006 3006 3006 3006 2980 3006 3006 3006 3006 3006 3006 3006 3006 3006 3006 3033 3033 3006 3006 3006 3006 3006 3006 3006 3033 3006 3006 3033 3033 3006 3006 3006 3033 3033 3033 3006 3006 3006 3033 3006 3006 2980 2980 2980 2980 2980 2980 2955 2980 2980 2980 2980 2980 3006 3006 3006 3006 3006 3033 3006 3006 3006 3006 3006 3006 3006 3006 3006 3006 3033 3033 3033 3033 3059 3059 3059 3087 3059 3059 3059 3059 3033 3006 3006 2980 2980 2980 2980 2980 2980 2980 2955 2980 2980 2980 2980 3006 3006 3033 3006 3006 3006 3006 3006 3006 3006 3006 3006 3006 3006 2980 3006 3006 3006 2980 2980 2980 3006 3006 3006 3006 2980 2980 2980 2980 2980 2980 2980 3006 3006 3006 3006 3006 3033 3006 3006 3006 3006 3033 3006 2980 2980 2980 3006 3006 3033 3033 3033 3033 3033 3033 3033 3033 3033 3006 3033 3033 3033 3033 3033 3033 3033 3033 3033 3033 3006 3033 3033 3006 3006 3006 3059 3059 3059 3059 3059 3033 3033 3059 3033 3033 3006 3006 2980
    0 0 0 0 0 0 0 0 0 0 0 0 0 0 0 0 0 0 0 0 0 0 0 0 0 0 0 0 0 0 0 0 0 0 0 0 0 0 0 0 0 0 0 0 0 0 0 0 0 0 0 0 0 0 0 0 0 0 0 0 0 0 0 0 0 0 0 0 0 0 0 0 0 0 0 0 0 0 0 0 0 0 0 0 0 0 0 0 0 0 0 0 0 0 0 0 0 0 0 0 0 0 0 0 0 0 0 0 0 0 0 0 0 0 0 0 0 0 0 0 0 2980 3006 3006 3006 3006 3006 3006 3006 3006 3006 3033 3033 3033 3033 3033 3006 3006 2980 2980 2980 2980 2980 2980 2980 2980 2980 2980 2980 2980 3006 3006 3006 3006 3033 3033 3033 3033 3033 3006 2980 3006 2980 3006 3033 3033 3033 3033 3033 3033 3033 3033 3033 3033 3033 3033 3006 3006 3006 3006 2980 2980 2980 2955 2980 2980 2980 2980 2980 2980 2980 2980 2980 2980 3006 2980 3006 2980 3006 3006 3006 3006 3006 3006 3006 3006 2980 2980 2980 2980 2955 2955 2955 2955 3006 3006 3006 3006 2980 2980 2980 3006 2980 3006 3006 3006 3006 3006 3006 3006 3006 3006 3006 3006 3006 3006 2980 3006 3006 3006 3006 3006 3006 3006 3006 3006 3006 2980 2980 3006 3006 3006 3006 3006 3006 3006 3006 3006 3006 3006 3033 3006 3033 3033 3033 3006 3006 3033 3006 3033 3033 3033 3033 3033 3033 2082 2082 2082 2069 2057 2045 2033 2021 2021 2009 1986 1986 1986 1975 1975 1975 1975 1975 1975 1964 1964 1964 1964 1964 1964 1952 1952 1952 1952 1941 1941 1941 1941 1931 1931 1931 1931 1931 1931 1931 1931 1931 1931 1931 1931 1920 1920 1920 1920 1920 1920 1920 1920 1920 1920 1909 1909 1909 1909 1909 1888 1899 1899 1899 1909 1899 1899 1899 1899 1899 1899 1888 1888 1899 1899 1899 1899 1899 1899 1899 1899 1909 1909 1909 1920 1909 1909 1909 1909 1920 1920 1920 1920 1920 1920 1920 1920 1920 1931 1931 1931 1931 1931 1931 1931 1931 1931 1941 1941 1941 1952 1952 1952 1964 1964 1964 1975 1975 1975 1975 1986 1998 2009 2009 2009 2009 2021 2021 2045 2057 2057 2069 2069 2069 2082 0 0 0 0 0 0 0 0 3033 3033 3033 3033 3033 3033 3033 3059 3033 3059 3059 3033 3033 3033 3033 3006 3006 3006 3006 3006 3006 3006 3006 3006 3006 3006 3006 3006 3006 3033 3033 3033 3033 3059 3033 3033 3033 3033 3033 3033 3033 3006 3006 3006 3033 3033 3006 3033 3033 3033 3033 3033 3033 3033 3033 3033 3033 3033 3033 3033 3033 3033 3033 3033 3033 3033 3033 3033 3033 3033 3033 3033 3033 3006 3006 3033 3033 3033 3006 2980 2980 2980 2980 2980 2980 2980 2980 2980 2980 3006 3006 3006 3033 3033 3033 3033 3033 3033 3033 3033 3033 3033 3033 3059 3033 3033 3033 3033 3033 3033 3059 3059 3059 3059 3087 3059 3059 3059 3059 3033 3006 3006 2980 2980 2980 2980 2980 2980 2980 2980 3006 3006 3006 3006 3006 3006 3033 3033 3059 3033 3006 3006 3006 3033 3006 3033 3006 3033 3006 3006 3006 3006 3006 3006 3006 3006 3033 3006 3006 3006 3006 2980 3006 2980 2980 3006 3006 3006 3006 3006 3006 3033 3033 3006 3006 3033 3033 3006 3006 3006 2980 3006 3006 3033 3033 3033 3033 3033 3059 3033 3033 3033 3033 3033 3033 3033 3033 3033 3059 3033 3033 3033 3033 3033 3033 3033 3033 3033 3059 3059 3059 3059 3059 3059 3033 3059 3059 3059 3059 3033 3006 3006
    0 0 0 0 0 0 0 0 0 0 0 0 0 0 0 0 0 0 0 0 0 0 0 0 0 0 0 0 0 0 0 0 0 0 0 0 0 0 0 0 0 0 0 0 0 0 0 0 0 0 0 0 0 0 0 0 0 0 0 0 0 0 0 0 0 0 0 0 0 0 0 0 0 0 0 0 0 0 0 0 0 0 0 0 0 0 0 0 0 0 0 0 0 0 0 0 0 0 0 0 0 0 0 0 0 0 0 0 0 0 0 0 0 0 0 0 0 0 0 0 0 2980 3006 3006 3033 3006 3006 3006 3006 3006 3033 3033 3033 3033 3033 3033 3006 3006 2980 2980 3006 3006 2980 2980 2980 2980 2980 2980 2980 2980 3006 3006 3006 3006 3033 3033 3033 3033 3006 3006 3006 3006 3006 3006 3033 3033 3033 3033 3006 3033 3033 3033 3006 3033 3033 3033 3006 3006 3006 3006 2980 2980 2980 2955 2955 2980 2980 2980 2980 2980 2980 3006 2980 3006 3006 3006 3006 3006 3006 3006 3006 3006 3006 3006 3006 3006 3006 3006 3006 3006 2955 2955 2955 2955 3006 3006 3006 2980 2980 3006 3006 3006 3006 3006 3006 3006 3006 3033 3006 3006 3006 3006 3006 3006 3006 3006 3006 3006 3006 3006 3006 3006 3006 3006 3006 3006 3006 3006 3006 3006 3006 3006 3006 3006 3006 3006 3006 3033 3033 3033 3033 3033 3033 3033 3033 3006 3033 3033 3033 3033 3033 3033 3033 3033 3033 2082 2082 2082 2069 2057 2045 2033 2021 2021 2009 1998 1986 1986 1975 1975 1975 1975 1975 1975 1964 1964 1964 1964 1964 1964 1964 1952 1952 1952 1952 1952 1941 1941 1941 1941 1931 1931 1941 1941 1941 1931 1941 1941 1931 1931 1920 1920 1920 1920 1920 1920 1920 1920 1920 1920 1909 1909 1909 1909 1909 1899 1899 1909 1909 1909 1909 1899 1899 1899 1899 1899 1899 1899 1899 1899 1899 1899 1899 1899 1909 1899 1909 1909 1920 1920 1920 1920 1920 1920 1920 1920 1920 1920 1920 1920 1920 1931 1931 1931 1931 1931 1931 1931 1931 1931 1931 1931 1941 1941 1952 1952 1952 1964 1964 1964 1975 1975 1975 1975 1975 1986 2009 2009 2009 2009 2021 2021 2033 2045 2057 2057 2057 2069 2069 2069 0 0 0 0 0 0 0 3006 3033 3033 3059 3059 3087 3059 3059 3059 3087 3087 3087 3033 3033 3059 3033 3033 3033 3033 3033 3033 3033 3033 3006 3033 3033 3033 3033 3033 3033 3033 3033 3033 3033 3059 3033 3033 3033 3033 3033 3059 3059 3059 3033 3033 3033 3033 3033 3033 3033 3033 3033 3033 3033 3033 3033 3033 3033 3033 3033 3033 3033 3033 3033 3033 3033 3059 3033 3033 3033 3033 3059 3059 3059 3033 3006 3006 3033 3033 3006 2980 2980 3006 2980 2980 2980 2980 2980 2980 2980 3006 3006 3033 3033 3033 3033 3033 3033 3033 3059 3059 3059 3059 3059 3059 3059 3033 3033 3033 3033 3033 3033 3059 3059 3059 3087 3059 3059 3059 3059 3033 3006 3006 2980 2980 2980 2980 2980 3006 2980 2980 3006 3006 3006 3006 3006 3006 3033 3033 3033 3033 3033 3033 3033 3033 3033 3033 3033 3033 3033 3033 3006 3006 3006 3033 3006 3033 3033 3033 3033 3006 3006 3006 3006 3006 3006 3006 3006 3033 3006 3033 3033 3033 3033 3033 3033 3033 3033 3033 3006 3006 3006 3006 3033 3033 3033 3033 3033 3033 3059 3059 3033 3033 3033 3033 3059 3059 3033 3033 3059 3033 3033 3033 3033 3033 3033 3033 3033 3033 3059 3059 3059 3059 3059 3059 3059 3059 3059 3059 3059 3059 3033 3006
    0 0 0 0 0 0 0 0 0 0 0 0 0 0 0 0 0 0 0 0 0 0 0 0 0 0 0 0 0 0 0 0 0 0 0 0 0 0 0 0 0 0 0 0 0 0 0 0 0 0 0 0 0 0 0 0 0 0 0 0 0 0 0 0 0 0 0 0 0 0 0 0 0 0 0 0 0 0 0 0 0 0 0 0 0 0 0 0 0 0 0 0 0 0 0 0 0 0 0 0 0 0 0 0 0 0 0 0 0 0 0 0 0 0 0 0 0 0 0 0 2955 2980 3006 3006 3006 3006 3006 3033 3033 3033 3033 3006 3006 3033 3033 3033 3006 3006 3006 3006 3006 3006 3006 2980 2980 2980 3006 3006 2980 3006 3006 3033 3033 3006 3033 3033 3033 3033 3006 3006 2980 3006 3006 3006 3033 3033 3033 3033 3033 3033 3033 3033 3033 3033 3033 3033 3033 3033 3006 3006 3006 2980 3006 2955 2980 2980 2980 2980 2980 2980 2980 3006 2980 3006 3006 3006 3006 3006 3006 3006 3006 3006 3006 3006 3033 3033 3006 3006 3006 3006 2980 2980 2980 2955 3006 3006 3006 3006 3006 3006 3006 3006 3006 3006 3006 3006 3006 3033 3006 3006 3006 3006 3006 3006 3033 3006 3006 3033 3033 3006 3033 3006 3006 3006 3006 3006 3006 3006 3006 3006 3033 3033 3006 3006 3006 3033 3033 3033 3033 3033 3033 3033 3033 3033 3033 3033 3033 3033 3033 3033 3033 3033 3033 3059 3059 3059 2082 2082 2069 2033 2033 2021 2021 2021 2009 1998 1998 1986 1986 1975 1975 1975 1975 1975 1975 1964 1964 1964 1964 1964 1964 1952 1952 1952 1952 1952 1941 1941 1941 1941 1941 1941 1941 1941 1941 1941 1941 1941 1941 1931 1920 1920 1920 1920 1920 1920 1920 1920 1920 1920 1909 1909 1909 1909 1909 1899 1909 1909 1909 1909 1909 1899 1899 1909 1909 1909 1899 1899 1899 1899 1899 1899 1899 1899 1909 1909 1909 1920 1920 1920 1920 1920 1920 1920 1920 1920 1920 1920 1920 1920 1920 1931 1931 1931 1931 1931 1931 1931 1941 1941 1931 1941 1941 1941 1952 1952 1964 1964 1964 1964 1975 1975 1975 1975 1986 1986 2009 2009 2009 2009 2009 2021 2021 2033 2045 2057 2057 2057 2069 0 0 0 0 0 0 3059 3059 3033 3059 3059 3059 3087 3087 3087 3087 3087 3087 3087 3087 3059 3033 3059 3059 3059 3059 3033 3033 3033 3033 3033 3033 3033 3059 3059 3059 3059 3059 3033 3059 3033 3033 3059 3033 3059 3059 3059 3087 3059 3059 3059 3059 3059 3059 3059 3059 3059 3059 3059 3059 3033 3033 3033 3033 3033 3033 3033 3033 3033 3033 3033 3033 3033 3059 3059 3059 3059 3059 3059 3059 3059 3059 3059 3059 3033 3059 3033 3033 3006 3006 3033 3006 3006 2980 2980 3006 2980 3006 3006 3033 3033 3033 3059 3033 3059 3059 3059 3059 3059 3059 3059 3059 3059 3059 3059 3059 3059 3033 3033 3059 3059 3059 3059 3087 3059 3059 3059 3059 3059 3006 3006 3006 3006 2980 3006 3006 3006 3006 3006 3006 3006 3006 3033 3033 3033 3033 3033 3033 3033 3033 3033 3033 3033 3033 3033 3033 3033 3033 3033 3006 3006 3006 3033 3033 3033 3033 3033 3033 3006 3033 3006 3033 3006 3006 3033 3006 3033 3006 3033 3033 3033 3033 3033 3033 3033 3033 3033 3033 3006 3006 3033 3033 3033 3033 3033 3033 3033 3059 3033 3033 3033 3033 3033 3033 3059 3033 3033 3059 3059 3059 3033 3059 3033 3059 3033 3033 3059 3059 3033 3059 3059 3087 3059 3059 3059 3059 3059 3059 3059 3033 3033
    0 0 0 0 0 0 0 0 0 0 0 0 0 0 0 0 0 0 0 0 0 0 0 0 0 0 0 0 0 0 0 0 0 0 0 0 0 0 0 0 0 0 0 0 0 0 0 0 0 0 0 0 0 0 0 0 0 0 0 0 0 0 0 0 0 0 0 0 0 0 0 0 0 0 0 0 0 0 0 0 0 0 0 0 0 0 0 0 0 0 0 0 0 0 0 0 0 0 0 0 0 0 0 0 0 0 0 0 0 0 0 0 0 0 0 0 0 0 0 0 0 3006 3006 3006 3006 3006 3033 3033 3033 3033 3033 3033 3033 3033 3033 3033 3006 3006 3006 3006 3006 3006 3006 2980 2980 3006 3006 3006 3006 3006 3006 3033 3033 3006 3033 3033 3033 3033 3006 3006 3006 3006 3006 3033 3033 3033 3033 3033 3033 3059 3033 3033 3033 3033 3033 3033 3033 3033 3006 3006 3006 3006 3033 2980 3033 3006 3033 3006 2980 3006 3006 3006 3006 3006 3006 3006 3006 3033 3033 3006 3033 3033 3033 3033 3033 3033 3033 3033 3033 3033 2980 3006 3006 2980 3006 3006 3006 3006 3006 3006 3006 3033 3033 3006 3006 3006 3006 3033 3033 3006 3006 3006 3006 3033 3033 3006 3033 3033 3033 3033 3033 3033 3033 3033 3006 3006 3033 3033 3033 3033 3033 3033 3033 3033 3033 3033 3033 3033 3033 3033 3033 3033 3033 3033 3033 3033 3033 3033 3059 3059 3059 3059 3059 3059 3059 3033 3033 2082 2069 2045 2033 2033 2021 2021 2021 2009 2009 1986 1986 1986 1975 1986 1975 1975 1975 1975 1975 1964 1964 1964 1975 1964 1964 1964 1952 1952 1941 1941 1941 1941 1941 1941 1941 1941 1941 1941 1941 1941 1941 1941 1920 1931 1920 1920 1920 1920 1920 1920 1920 1920 1920 1909 1909 1909 1909 1909 1909 1909 1909 1920 1909 1909 1909 1909 1909 1909 1909 1909 1899 1899 1899 1909 1899 1909 1909 1909 1920 1920 1920 1920 1920 1920 1920 1920 1920 1920 1931 1931 1931 1931 1931 1931 1931 1931 1931 1931 1931 1931 1941 1941 1941 1941 1941 1952 1952 1964 1964 1964 1964 1975 1975 1975 1975 1975 1986 2009 2009 2009 2021 2009 2021 2021 2021 2045 2045 2057 2057 2057 2069 0 0 0 0 0 3087 3059 3059 3033 3059 3059 3059 3087 3087 3087 3087 3087 3087 3087 3087 3059 3033 3059 3059 3059 3059 3059 3059 3059 3059 3059 3059 3059 3059 3059 3059 3059 3059 3059 3059 3059 3059 3059 3059 3059 3087 3087 3087 3087 3087 3059 3059 3059 3059 3059 3059 3059 3059 3059 3059 3059 3059 3059 3059 3059 3059 3059 3059 3033 3033 3033 3059 3059 3059 3059 3059 3059 3059 3059 3059 3059 3059 3059 3059 3033 3059 3059 3033 3033 3033 3033 3033 3033 3006 3006 3059 3006 3033 3033 3033 3059 3059 3059 3033 3059 3059 3059 3059 3059 3059 3059 3059 3087 3059 3059 3059 3059 3059 3059 3059 3059 3087 3087 3087 3059 3087 3087 3059 3059 3006 3006 3006 3006 3006 3006 3006 3006 3006 3006 3006 3033 3033 3033 3033 3033 3033 3033 3033 3033 3033 3033 3033 3059 3033 3033 3033 3033 3033 3033 3033 3033 3033 3033 3033 3059 3059 3033 3033 3006 3033 3006 3006 3006 3006 3033 3006 3033 3033 3033 3033 3033 3033 3033 3033 3033 3033 3033 3033 3033 3033 3033 3033 3059 3059 3033 3033 3033 3059 3033 3033 3033 3033 3033 3059 3059 3033 3033 3059 3059 3059 3059 3059 3033 3059 3059 3059 3059 3059 3059 3059 3087 3087 3059 3059 3059 3059 3059 3059 3059 3059 3059
    0 0 0 0 0 0 0 0 0 0 0 0 0 0 0 0 0 0 0 0 0 0 0 0 0 0 0 0 0 0 0 0 0 0 0 0 0 0 0 0 0 0 0 0 0 0 0 0 0 0 0 0 0 0 0 0 0 0 0 0 0 0 0 0 0 0 0 0 0 0 0 0 0 0 0 0 0 0 0 0 0 0 0 0 0 0 0 0 0 0 0 0 0 0 0 0 0 0 0 0 0 0 0 0 0 0 0 0 0 0 0 0 0 0 0 0 0 0 0 0 0 3006 3033 3033 3033 3033 3033 3033 3059 3033 3033 3033 3033 3033 3033 3033 3033 3033 3006 3006 3006 3006 3006 3006 3006 3033 3006 3033 3006 3006 3033 3033 3033 3006 3033 3033 3033 3033 3006 3006 3006 3006 3006 3033 3033 3033 3033 3033 3033 3033 3033 3033 3033 3033 3033 3033 3033 3006 3033 3006 3033 3033 3033 3033 3033 3033 3033 3033 3006 3006 3006 3006 3006 3006 3033 3033 3033 3033 3033 3033 3033 3033 3033 3033 3033 3033 3033 3033 3033 3033 3006 3006 3006 2980 3006 3006 3033 3006 3006 3006 3006 3033 3033 3033 3033 3033 3033 3033 3033 3033 3033 3033 3033 3033 3033 3033 3033 3033 3033 3033 3033 3033 3033 3033 3033 3033 3033 3033 3033 3033 3033 3033 3033 3033 3033 3033 3059 3033 3059 3033 3033 3033 3033 3059 3033 3033 3033 3059 3059 3087 3059 3059 3033 3059 3033 3033 3033 3006 2033 2033 2033 2033 2033 2021 2021 2021 2021 2009 1998 1986 1986 1986 1986 1975 1975 1975 1975 1964 1975 1964 1975 1964 1964 1964 1952 1952 1952 1941 1941 1941 1941 1941 1941 1941 1941 1941 1941 1941 1941 1941 1931 1931 1931 1931 1920 1920 1920 1920 1920 1920 1920 1909 1909 1909 1920 1909 1920 1920 1909 1920 1920 1909 1909 1920 1920 1909 1909 1909 1909 1909 1909 1909 1920 1909 1920 1920 1920 1920 1920 1920 1920 1920 1920 1920 1931 1931 1931 1931 1931 1931 1931 1931 1931 1941 1941 1931 1931 1941 1941 1941 1941 1941 1941 1952 1952 1964 1964 1964 1975 1975 1975 1975 1986 1986 1998 2009 2009 2009 2009 2021 2021 2021 2033 2033 2045 2057 2057 2057 2069 0 0 0 3115 3115 3115 3087 3087 3059 3059 3087 3087 3087 3087 3087 3087 3087 3087 3087 3087 3059 3059 3059 3059 3059 3059 3059 3059 3059 3059 3059 3059 3059 3059 3059 3059 3059 3059 3059 3059 3059 3059 3059 3059 3087 3087 3087 3059 3059 3059 3059 3059 3059 3059 3087 3059 3059 3059 3059 3059 3059 3059 3059 3059 3059 3059 3059 3059 3059 3033 3059 3059 3059 3059 3059 3059 3059 3059 3059 3059 3059 3059 3059 3059 3033 3059 3059 3033 3033 3033 3033 3033 3033 3033 3033 3033 3033 3033 3059 3059 3059 3059 3059 3059 3059 3059 3059 3059 3059 3059 3059 3059 3059 3059 3059 3059 3059 3059 3059 3087 3059 3087 3087 3087 3087 3087 3087 3059 3059 3006 3006 3006 3006 3006 3006 3006 3006 3033 3033 3006 3006 3033 3033 3033 3033 3033 3033 3033 3033 3033 3033 3033 3059 3033 3033 3033 3033 3033 3033 3033 3033 3006 3033 3059 3059 3059 3033 3033 3033 3033 3006 3033 3033 3006 3033 3033 3033 3033 3033 3033 3033 3059 3033 3033 3033 3059 3033 3033 3033 3033 3033 3033 3059 3059 3059 3059 3059 3059 3033 3033 3033 3033 3059 3059 3059 3059 3059 3059 3059 3059 3059 3059 3059 3059 3059 3059 3059 3059 3059 3059 3059 3087 3087 3059 3087 3087 3087 3059 3087 3059 3059
    0 0 0 0 0 0 0 0 0 0 0 0 0 0 0 0 0 0 0 0 0 0 0 0 0 0 0 0 0 0 0 0 0 0 0 0 0 0 0 0 0 0 0 0 0 0 0 0 0 0 0 0 0 0 0 0 0 0 0 0 0 0 0 0 0 0 0 0 0 0 0 0 0 0 0 0 0 0 0 0 0 0 0 0 0 0 0 0 0 0 0 0 0 0 0 0 0 0 0 0 0 0 0 0 0 0 0 0 0 0 0 0 0 0 0 0 0 0 0 0 3033 3033 3033 3033 3033 3033 3033 3059 3059 3059 3059 3059 3059 3059 3059 3059 3033 3033 3033 3006 3006 3033 3033 3006 3006 3033 3033 3033 3033 3033 3033 3033 3033 3033 3033 3033 3033 3033 3033 3006 3006 3006 3006 3033 3033 3033 3033 3033 3033 3033 3059 3033 3033 3033 3033 3033 3033 3006 3006 3006 3033 3006 3033 3059 3059 3059 3033 3033 3006 3006 3006 3033 3006 3033 3033 3033 3033 3033 3033 3033 3033 3033 3033 3033 3033 3033 3033 3033 3059 3059 3006 3033 3033 3006 3033 3033 3033 3033 3033 3033 3033 3033 3033 3033 3033 3033 3033 3033 3033 3033 3033 3033 3033 3033 3033 3033 3033 3059 3033 3033 3033 3059 3033 3033 3033 3033 3033 3033 3033 3033 3033 3033 3033 3033 3033 3033 3059 3033 3059 3059 3059 3033 3033 3059 3059 3059 3059 3087 3087 3087 3087 3059 3059 3059 3059 3033 3033 3006 2069 2057 2033 2033 2021 2021 2021 2021 2021 2009 2009 2009 1986 1986 1986 1986 1975 1975 1975 1975 1975 1964 1975 1964 1964 1964 1964 1952 1952 1941 1941 1941 1941 1941 1941 1941 1941 1941 1941 1941 1941 1941 1931 1931 1931 1931 1920 1931 1920 1920 1920 1920 1920 1920 1920 1920 1920 1920 1920 1920 1920 1920 1920 1920 1920 1920 1920 1920 1920 1920 1909 1909 1920 1920 1920 1920 1920 1920 1920 1920 1920 1931 1931 1931 1931 1931 1931 1931 1931 1931 1931 1931 1931 1931 1931 1931 1931 1931 1941 1941 1941 1941 1941 1952 1952 1964 1964 1964 1964 1975 1975 1975 1975 1975 1986 1986 1998 2009 2009 2009 2009 2021 2021 2033 2033 2033 2033 2045 2057 2057 0 0 0 0 3087 3087 3087 3087 3087 3087 3087 3087 3087 3087 3087 3087 3087 3115 3115 3087 3115 3059 3059 3059 3059 3059 3059 3059 3059 3059 3059 3059 3059 3059 3059 3059 3059 3059 3059 3059 3059 3059 3059 3059 3059 3059 3059 3059 3059 3059 3059 3059 3087 3087 3059 3087 3087 3059 3059 3059 3059 3059 3059 3059 3059 3059 3059 3059 3059 3059 3059 3059 3059 3059 3059 3059 3059 3059 3059 3059 3059 3059 3087 3087 3059 3059 3059 3059 3059 3033 3033 3059 3059 3033 3033 3033 3059 3059 3059 3059 3059 3087 3087 3059 3059 3059 3059 3087 3087 3087 3087 3087 3087 3087 3087 3087 3087 3087 3059 3087 3087 3087 3087 3087 3087 3059 3059 3087 3059 3059 3006 3006 3006 3006 3006 3006 3006 3006 3033 3033 3033 3033 3033 3033 3033 3033 3059 3033 3059 3059 3059 3033 3059 3059 3059 3059 3033 3059 3033 3033 3033 3033 3033 3033 3059 3059 3059 3033 3059 3033 3033 3033 3033 3033 3033 3033 3033 3033 3033 3033 3033 3033 3059 3033 3033 3059 3059 3033 3033 3033 3033 3059 3059 3059 3059 3059 3059 3059 3059 3033 3033 3059 3059 3059 3059 3059 3059 3059 3059 3059 3059 3059 3059 3059 3059 3059 3059 3059 3059 3059 3087 3087 3087 3087 3059 3087 3087 3087 3059 3059 3059 3059
    0 0 0 0 0 0 0 0 0 0 0 0 0 0 0 0 0 0 0 0 0 0 0 0 0 0 0 0 0 0 0 0 0 0 0 0 0 0 0 0 0 0 0 0 0 0 0 0 0 0 0 0 0 0 0 0 0 0 0 0 0 0 0 0 0 0 0 0 0 0 0 0 0 0 0 0 0 0 0 0 0 0 0 0 0 0 0 0 0 0 0 0 0 0 0 0 0 0 0 0 0 0 0 0 0 0 0 0 0 0 0 0 0 0 0 0 0 0 0 3006 3033 3033 3033 3033 3033 3033 3059 3059 3059 3059 3059 3059 3059 3059 3059 3059 3033 3033 3033 3033 3033 3033 3033 3033 3033 3033 3033 3033 3033 3033 3033 3033 3033 3033 3033 3033 3033 3033 3033 3033 3006 3033 3033 3033 3033 3059 3033 3033 3033 3033 3033 3033 3033 3033 3033 3033 3033 3033 3033 3033 3033 3033 3059 3059 3059 3059 3059 3059 3006 3033 3006 3033 3033 3033 3033 3033 3033 3033 3033 3033 3033 3033 3033 3033 3059 3059 3059 3059 3059 3059 3033 3033 3033 3033 3033 3033 3033 3033 3033 3033 3033 3033 3033 3033 3033 3033 3033 3033 3033 3033 3059 3059 3059 3059 3059 3059 3059 3059 3059 3059 3059 3059 3059 3059 3033 3033 3033 3033 3033 3033 3033 3033 3033 3033 3033 3033 3059 3033 3059 3059 3059 3033 3059 3059 3059 3059 3087 3087 3087 3087 3087 3087 3087 3087 3059 3059 3059 3059 2069 2057 2045 2033 2033 2021 2021 2021 2021 2009 2009 2009 1998 1998 1986 1986 1986 1975 1975 1975 1975 1964 1975 1964 1964 1964 1952 1952 1941 1941 1941 1941 1941 1941 1941 1941 1941 1941 1941 1941 1941 1941 1920 1931 1931 1931 1931 1931 1920 1931 1920 1920 1920 1909 1920 1920 1920 1920 1920 1920 1920 1920 1931 1920 1920 1920 1920 1920 1920 1920 1920 1920 1920 1920 1920 1920 1920 1920 1920 1920 1920 1931 1931 1931 1931 1931 1931 1931 1931 1931 1931 1931 1931 1931 1931 1931 1931 1941 1941 1941 1941 1941 1941 1952 1964 1964 1964 1964 1964 1975 1975 1975 1975 1986 1986 1986 1998 1998 2009 2009 2009 2021 2021 2021 2033 2033 2033 2045 2057 2057 0 0 0 0 3115 3059 3087 3087 3087 3087 3087 3087 3087 3115 3115 3115 3115 3115 3115 3115 3115 3087 3059 3059 3087 3087 3087 3087 3087 3087 3087 3087 3087 3087 3087 3059 3087 3087 3087 3059 3087 3059 3059 3059 3059 3059 3059 3059 3059 3087 3087 3087 3087 3087 3087 3087 3087 3087 3087 3059 3059 3059 3059 3059 3059 3059 3059 3059 3059 3059 3059 3059 3059 3087 3059 3059 3059 3087 3059 3059 3059 3087 3087 3087 3087 3059 3087 3087 3059 3059 3059 3059 3059 3059 3059 3059 3087 3087 3087 3087 3087 3087 3087 3087 3087 3087 3087 3087 3087 3087 3087 3087 3087 3087 3087 3087 3087 3087 3087 3087 3087 3087 3087 3087 3087 3059 3059 3059 3059 3059 3006 3006 3033 3033 3033 3033 3033 3033 3059 3059 3059 3059 3059 3059 3059 3059 3059 3059 3059 3059 3059 3059 3059 3059 3059 3059 3059 3059 3059 3059 3033 3033 3033 3033 3059 3059 3059 3059 3059 3033 3059 3033 3033 3033 3033 3033 3059 3059 3033 3059 3033 3059 3059 3059 3059 3059 3059 3059 3059 3033 3059 3059 3059 3059 3059 3059 3059 3059 3033 3033 3033 3059 3059 3059 3059 3059 3059 3087 3087 3059 3087 3059 3087 3059 3087 3087 3059 3059 3059 3087 3087 3087 3087 3087 3087 3087 3115 3087 3087 3059 3059 3059
    0 0 0 0 0 0 0 0 0 0 0 0 0 0 0 0 0 0 0 0 0 0 0 0 0 0 0 0 0 0 0 0 0 0 0 0 0 0 0 0 0 0 0 0 0 0 0 0 0 0 0 0 0 0 0 0 0 0 0 0 0 0 0 0 0 0 0 0 0 0 0 0 0 0 0 0 0 0 0 0 0 0 0 0 0 0 0 0 0 0 0 0 0 0 0 0 0 0 0 0 0 0 0 0 0 0 0 0 0 0 0 0 0 0 0 0 0 0 0 0 3033 3059 3059 3059 3059 3059 3059 3059 3059 3059 3059 3059 3059 3059 3059 3059 3033 3033 3033 3033 3033 3033 3033 3033 3033 3033 3033 3033 3033 3059 3059 3059 3059 3033 3059 3033 3033 3033 3033 3033 3033 3033 3033 3033 3059 3059 3059 3059 3059 3059 3059 3059 3059 3033 3033 3033 3033 3033 3033 3033 3033 3033 3033 3033 3033 3033 3059 3059 3033 3033 3033 3033 3033 3033 3033 3033 3059 3059 3059 3059 3033 3033 3059 3059 3059 3059 3059 3059 3087 3059 3033 3033 3033 3033 3033 3033 3059 3059 3033 3033 3033 3033 3033 3033 3033 3033 3033 3033 3033 3033 3033 3059 3059 3059 3059 3059 3059 3059 3059 3059 3059 3087 3087 3059 3059 3059 3059 3059 3059 3033 3033 3033 3033 3033 3059 3059 3059 3059 3059 3059 3059 3033 3059 3059 3059 3087 3087 3115 3087 3115 3115 3087 3087 3087 3087 3087 3059 3059 3059 2045 2045 2033 2033 2033 2033 2021 2021 2021 2021 2009 2009 1998 1986 1986 1986 1986 1975 1975 1975 1975 1975 1964 1975 1964 1952 1952 1952 1941 1941 1952 1952 1941 1952 1941 1941 1941 1941 1941 1941 1941 1931 1931 1931 1931 1931 1931 1931 1931 1920 1920 1920 1920 1920 1920 1920 1920 1920 1920 1920 1920 1920 1920 1920 1931 1931 1931 1920 1920 1920 1920 1920 1920 1920 1920 1920 1920 1920 1931 1931 1931 1931 1931 1931 1931 1931 1931 1931 1931 1931 1931 1931 1931 1941 1941 1941 1941 1941 1941 1941 1952 1952 1952 1964 1964 1964 1964 1964 1975 1975 1975 1975 1986 1986 1986 1998 2009 2009 2009 2009 2021 2021 2021 2021 2033 2033 2045 2045 0 0 0 0 0 3087 3059 3087 3087 3087 3087 3115 3115 3115 3115 3115 3115 3115 3115 3115 3115 3115 3087 3087 3087 3087 3087 3087 3087 3087 3087 3087 3087 3087 3087 3087 3087 3087 3087 3087 3087 3087 3087 3087 3087 3059 3059 3059 3059 3059 3087 3087 3087 3087 3087 3087 3087 3087 3087 3087 3087 3087 3087 3087 3059 3059 3059 3059 3059 3059 3059 3059 3059 3087 3087 3087 3087 3087 3087 3087 3087 3087 3087 3087 3087 3115 3087 3087 3087 3087 3087 3087 3059 3059 3059 3059 3087 3087 3087 3087 3087 3115 3115 3087 3087 3087 3087 3087 3087 3087 3087 3087 3087 3087 3087 3087 3087 3087 3087 3087 3087 3115 3087 3087 3087 3087 3059 3087 3087 3059 3059 3033 3033 3033 3033 3033 3033 3059 3059 3059 3059 3059 3059 3087 3059 3059 3059 3059 3059 3059 3059 3059 3059 3059 3059 3059 3059 3059 3059 3033 3033 3033 3033 3033 3059 3059 3059 3059 3059 3059 3059 3059 3059 3059 3087 3059 3059 3059 3087 3059 3059 3059 3059 3059 3059 3059 3059 3059 3059 3059 3059 3059 3059 3059 3059 3059 3059 3059 3059 3059 3059 3059 3059 3059 3087 3087 3087 3087 3087 3087 3087 3087 3087 3087 3087 3087 3087 3087 3087 3087 3087 3087 3087 3087 3087 3087 3087 3115 3087 3115 3115 3115 3115
    0 0 0 0 0 0 0 0 0 0 0 0 0 0 0 0 0 0 0 0 0 0 0 0 0 0 0 0 0 0 0 0 0 0 0 0 0 0 0 0 0 0 0 0 0 0 0 0 0 0 0 0 0 0 0 0 0 0 0 0 0 0 0 0 0 0 0 0 0 0 0 0 0 0 0 0 0 0 0 0 0 0 0 0 0 0 0 0 0 0 0 0 0 0 0 0 0 0 0 0 0 0 0 0 0 0 0 0 0 0 0 0 0 0 0 0 0 0 0 0 3033 3059 3059 3059 3059 3059 3059 3059 3087 3087 3087 3087 3059 3059 3059 3059 3059 3033 3033 3033 3033 3033 3033 3033 3033 3059 3033 3059 3059 3059 3059 3059 3033 3033 3059 3059 3033 3033 3033 3033 3033 3033 3033 3033 3059 3059 3059 3059 3059 3059 3059 3059 3059 3059 3059 3033 3059 3059 3059 3033 3059 3059 3059 3059 3059 3059 3059 3033 3033 3033 3033 3033 3033 3033 3033 3033 3059 3059 3059 3059 3059 3059 3059 3059 3087 3059 3087 3087 3087 3087 3059 3059 3059 3059 3059 3059 3059 3059 3059 3059 3059 3059 3033 3033 3033 3033 3033 3033 3033 3059 3059 3059 3059 3059 3059 3087 3087 3087 3087 3087 3087 3087 3087 3087 3087 3059 3059 3059 3059 3059 3059 3059 3033 3059 3059 3059 3059 3059 3059 3059 3059 3059 3059 3087 3059 3087 3087 3115 3115 3115 3115 3087 3087 3087 3087 3087 3087 3087 3059 2045 2045 2033 2033 2033 2033 2033 2033 2021 2021 2021 2009 2009 1998 1998 1986 1986 1986 1975 1975 1975 1975 1975 1975 1975 1952 1952 1952 1941 1941 1952 1952 1952 1952 1952 1941 1941 1941 1941 1941 1941 1931 1931 1931 1931 1931 1931 1931 1920 1920 1920 1920 1920 1920 1920 1920 1920 1920 1920 1920 1920 1931 1931 1931 1931 1931 1931 1931 1931 1920 1920 1920 1920 1920 1931 1920 1920 1920 1931 1931 1931 1931 1931 1931 1931 1931 1931 1931 1931 1931 1931 1931 1931 1941 1941 1941 1941 1952 1941 1952 1952 1952 1964 1964 1964 1964 1964 1975 1975 1975 1975 1986 1986 1998 1998 1998 2009 2009 2009 2009 2021 2021 2021 2021 2033 2033 2045 0 0 0 0 0 0 3059 3087 3087 3087 3115 3115 3115 3115 3115 3115 3115 3115 3115 3115 3115 3115 3115 3087 3087 3087 3087 3087 3087 3087 3087 3087 3087 3087 3087 3087 3087 3087 3087 3087 3087 3087 3087 3087 3087 3087 3087 3087 3087 3087 3087 3087 3087 3087 3087 3087 3087 3087 3087 3087 3087 3087 3087 3087 3087 3059 3059 3059 3087 3059 3087 3087 3087 3087 3087 3087 3087 3087 3087 3087 3087 3087 3087 3087 3087 3087 3115 3087 3087 3087 3087 3087 3059 3087 3059 3059 3087 3087 3087 3087 3087 3087 3115 3115 3115 3087 3087 3087 3087 3087 3087 3087 3087 3087 3087 3087 3087 3087 3087 3115 3087 3087 3087 3087 3087 3087 3087 3087 3087 3087 3087 3087 3033 3033 3033 3059 3059 3059 3059 3059 3059 3087 3087 3087 3087 3059 3059 3059 3087 3087 3087 3087 3059 3059 3059 3059 3059 3059 3059 3059 3059 3059 3033 3033 3033 3059 3059 3059 3059 3059 3059 3059 3087 3059 3059 3059 3059 3087 3087 3087 3059 3059 3059 3059 3059 3059 3059 3059 3059 3059 3059 3059 3059 3059 3059 3059 3059 3059 3059 3087 3033 3059 3059 3059 3059 3087 3087 3087 3087 3115 3115 3087 3115 3115 3115 3115 3087 3087 3087 3115 3087 3115 3115 3115 3115 3087 3087 3115 3115 3115 3115 3115 3115 3115
    0 0 0 0 0 0 0 0 0 0 0 0 0 0 0 0 0 0 0 0 0 0 0 0 0 0 0 0 0 0 0 0 0 0 0 0 0 0 0 0 0 0 0 0 0 0 0 0 0 0 0 0 0 0 0 0 0 0 0 0 0 0 0 0 0 0 0 0 0 0 0 0 0 0 0 0 0 0 0 0 0 0 0 0 0 0 0 0 0 0 0 0 0 0 0 0 0 0 0 0 0 0 0 0 0 0 0 0 0 0 0 0 0 0 0 0 0 0 0 0 3059 3059 3087 3059 3059 3059 3087 3087 3087 3087 3087 3087 3059 3059 3059 3059 3059 3059 3059 3033 3059 3059 3059 3059 3059 3059 3059 3059 3059 3059 3059 3059 3059 3033 3059 3059 3033 3033 3033 3033 3033 3033 3033 3033 3059 3059 3059 3059 3059 3059 3059 3059 3059 3059 3059 3059 3033 3059 3059 3059 3059 3059 3059 3059 3059 3059 3059 3059 3059 3059 3059 3059 3059 3059 3059 3059 3059 3059 3059 3059 3059 3059 3059 3059 3059 3059 3059 3059 3087 3087 3059 3059 3059 3087 3087 3059 3087 3059 3059 3059 3059 3059 3059 3033 3033 3033 3033 3033 3059 3059 3059 3059 3059 3059 3087 3087 3087 3087 3087 3087 3087 3115 3087 3087 3087 3087 3087 3059 3059 3059 3059 3059 3059 3115 3115 3115 3115 3115 3087 3087 3087 3087 3087 3087 3059 3087 3087 3115 3115 3115 3115 3087 3087 3087 3087 3087 3087 3087 3087 2045 2045 2045 2045 2045 2045 2045 2033 2033 2021 2021 2021 2009 1998 1998 1986 1986 1986 1975 1975 1975 1975 1975 1975 1975 1964 1952 1952 1952 1952 1964 1964 1952 1964 1952 1952 1952 1941 1941 1941 1941 1920 1931 1931 1931 1920 1931 1920 1931 1931 1920 1920 1920 1920 1920 1920 1920 1931 1920 1920 1920 1920 1931 1931 1931 1931 1931 1931 1931 1931 1931 1920 1920 1931 1931 1931 1931 1920 1931 1931 1931 1931 1931 1931 1931 1931 1931 1931 1931 1931 1941 1931 1941 1941 1941 1941 1941 1952 1952 1952 1952 1964 1964 1964 1964 1964 1964 1975 1975 1975 1986 1986 1986 1998 1998 1998 2009 2009 2009 2009 2021 2021 2033 2033 2033 2033 0 0 0 0 0 0 0 3087 3087 3115 3115 3115 3115 3115 3115 3115 3115 3115 3115 3115 3115 3115 3115 3115 3087 3087 3059 3087 3087 3087 3087 3087 3087 3087 3087 3087 3087 3087 3087 3087 3087 3087 3087 3087 3087 3087 3087 3087 3087 3087 3087 3087 3087 3087 3087 3087 3087 3087 3115 3087 3087 3087 3087 3087 3087 3087 3087 3087 3087 3087 3087 3087 3087 3087 3087 3087 3087 3087 3115 3115 3087 3087 3087 3087 3115 3115 3115 3115 3115 3087 3087 3087 3087 3087 3087 3087 3087 3087 3087 3087 3115 3115 3115 3143 3143 3115 3115 3087 3087 3087 3087 3087 3087 3087 3087 3087 3087 3087 3115 3115 3115 3115 3115 3115 3115 3115 3087 3087 3087 3087 3087 3087 3087 3059 3059 3059 3059 3059 3059 3059 3059 3087 3087 3087 3087 3115 3087 3087 3087 3115 3087 3087 3087 3087 3087 3087 3087 3087 3087 3059 3059 3059 3059 3059 3059 3059 3059 3087 3087 3087 3087 3087 3087 3087 3087 3059 3059 3087 3115 3115 3115 3087 3087 3087 3087 3087 3059 3059 3059 3059 3059 3059 3059 3059 3059 3059 3059 3059 3059 3059 3059 3059 3059 3059 3087 3087 3143 3115 3115 3115 3115 3115 3087 3115 3115 3115 3115 3115 3115 3115 3115 3115 3115 3143 3115 3087 3115 3115 3115 3115 3115 3115 3115 3143 3143
    0 0 0 0 0 0 0 0 0 0 0 0 0 0 0 0 0 0 0 0 0 0 0 0 0 0 0 0 0 0 0 0 0 0 0 0 0 0 0 0 0 0 0 0 0 0 0 0 0 0 0 0 0 0 0 0 0 0 0 0 0 0 0 0 0 0 0 0 0 0 0 0 0 0 0 0 0 0 0 0 0 0 0 0 0 0 0 0 0 0 0 0 0 0 0 0 0 0 0 0 0 0 0 0 0 0 0 0 0 0 0 0 0 0 0 0 0 0 0 3059 3059 3087 3087 3087 3087 3087 3087 3087 3115 3087 3087 3087 3087 3087 3059 3059 3059 3059 3059 3059 3059 3059 3059 3059 3059 3087 3087 3087 3059 3059 3059 3059 3087 3059 3059 3059 3059 3033 3033 3033 3033 3033 3059 3059 3059 3059 3059 3059 3059 3059 3059 3059 3059 3059 3059 3059 3059 3059 3059 3059 3059 3059 3059 3059 3059 3059 3059 3087 3059 3059 3059 3059 3059 3059 3059 3059 3059 3059 3059 3059 3059 3059 3059 3059 3059 3059 3087 3087 3087 3087 3087 3087 3087 3087 3087 3087 3087 3059 3059 3087 3087 3059 3059 3059 3059 3059 3059 3059 3059 3087 3087 3087 3087 3087 3087 3087 3087 3087 3087 3087 3087 3115 3115 3087 3087 3087 3087 3087 3087 3087 3059 3059 3059 3115 3115 3115 3115 3115 3115 3115 3087 3087 3087 3087 3087 3087 3115 3115 3115 3115 3087 3087 3087 3115 3087 3087 3115 3115 3143 2057 2045 2045 2045 2045 2045 2045 2045 2033 2033 2033 2021 2021 2009 2009 1998 1998 1986 1986 1986 1975 1975 1975 1975 1975 1964 1964 1952 1952 1952 1964 1964 1964 1975 1964 1975 1964 1941 1941 1941 1941 1920 1931 1931 1931 1931 1920 1931 1931 1931 1920 1931 1931 1931 1920 1920 1920 1920 1920 1920 1931 1931 1931 1931 1931 1931 1931 1931 1931 1931 1931 1931 1931 1931 1931 1931 1931 1931 1931 1931 1931 1931 1931 1931 1931 1931 1931 1931 1931 1931 1941 1941 1941 1941 1952 1952 1952 1952 1964 1952 1964 1964 1964 1964 1964 1964 1964 1975 1975 1975 1986 1986 1998 1998 1998 2009 2009 2009 2009 2021 2021 2021 2033 2045 2045 2045 0 0 0 0 0 0 0 3087 3087 3115 3115 3115 3115 3115 3115 3115 3115 3115 3115 3115 3115 3115 3115 3115 3087 3087 3087 3087 3087 3087 3087 3087 3087 3087 3115 3087 3087 3087 3087 3087 3087 3087 3087 3087 3087 3087 3087 3087 3087 3087 3087 3087 3087 3087 3115 3115 3115 3087 3087 3087 3087 3087 3087 3087 3087 3087 3087 3087 3087 3087 3087 3087 3087 3115 3115 3115 3115 3115 3115 3115 3115 3115 3115 3115 3115 3143 3115 3115 3143 3115 3115 3115 3087 3087 3087 3087 3087 3087 3087 3115 3115 3143 3143 3172 3143 3143 3115 3115 3087 3087 3087 3087 3087 3087 3087 3087 3087 3087 3115 3115 3143 3115 3115 3115 3115 3115 3087 3115 3087 3087 3087 3087 3087 3059 3059 3059 3059 3059 3087 3087 3087 3087 3115 3115 3115 3115 3087 3115 3087 3115 3115 3115 3115 3115 3115 3115 3115 3087 3115 3087 3087 3087 3087 3087 3087 3087 3087 3087 3087 3087 3087 3087 3087 3115 3087 3115 3115 3115 3115 3115 3143 3115 3115 3115 3115 3143 3143 3087 3059 3059 3059 3059 3059 3059 3059 3059 3059 3087 3059 3087 3087 3059 3087 3087 3143 3143 3143 3143 3115 3143 3143 3143 3115 3115 3115 3115 3115 3115 3115 3115 3115 3143 3143 3115 3115 3115 3115 3115 3115 3115 3087 3115 3115 3115 3143
    0 0 0 0 0 0 0 0 0 0 0 0 0 0 0 0 0 0 0 0 0 0 0 0 0 0 0 0 0 0 0 0 0 0 0 0 0 0 0 0 0 0 0 0 0 0 0 0 0 0 0 0 0 0 0 0 0 0 0 0 0 0 0 0 0 0 0 0 0 0 0 0 0 0 0 0 0 0 0 0 0 0 0 0 0 0 0 0 0 0 0 0 0 0 0 0 0 0 0 0 0 0 0 0 0 0 0 0 0 0 0 0 0 0 0 0 0 0 3059 3087 3087 3087 3115 3087 3115 3087 3087 3087 3115 3115 3087 3087 3087 3087 3059 3059 3059 3059 3059 3059 3059 3059 3033 3059 3059 3087 3087 3059 3059 3059 3087 3087 3087 3059 3059 3059 3059 3033 3033 3033 3059 3059 3059 3059 3059 3059 3059 3059 3059 3059 3059 3059 3059 3059 3059 3059 3059 3059 3059 3087 3059 3059 3059 3059 3059 3059 3059 3087 3059 3059 3059 3059 3059 3059 3059 3059 3059 3059 3059 3059 3059 3059 3059 3059 3087 3059 3059 3059 3087 3087 3087 3087 3087 3087 3087 3087 3087 3087 3087 3087 3087 3087 3087 3087 3087 3087 3087 3087 3087 3087 3087 3087 3087 3087 3087 3115 3115 3115 3115 3115 3115 3115 3115 3087 3115 3115 3115 3115 3087 3115 3059 3087 3115 3115 3115 3115 3115 3115 3115 3115 3087 3087 3087 3087 3087 3115 3115 3115 3115 3087 3087 3087 3087 3115 3087 3115 3115 3143 3143 3143 2057 2045 2057 2057 2045 2045 2045 2045 2033 2033 2033 2021 2021 2009 1998 1998 1986 1986 1986 1975 1975 1975 1975 1964 1964 1964 1952 1952 1952 1964 1975 1975 1975 1975 1975 1964 1952 1941 1941 1941 1931 1931 1931 1931 1931 1931 1931 1931 1931 1931 1931 1931 1931 1920 1920 1920 1920 1931 1931 1931 1931 1931 1931 1931 1931 1931 1931 1931 1931 1931 1931 1931 1931 1931 1931 1931 1931 1931 1931 1931 1931 1931 1931 1931 1931 1941 1931 1931 1941 1941 1931 1931 1941 1952 1952 1952 1964 1964 1964 1964 1964 1964 1964 1964 1964 1975 1975 1975 1986 1986 1986 1998 1998 2009 2009 2009 2009 2021 2021 2021 2033 2045 2045 2057 0 0 0 0 0 0 0 3087 3115 3115 3115 3115 3115 3115 3143 3143 3143 3143 3143 3143 3115 3115 3115 3143 3115 3087 3087 3087 3087 3115 3087 3087 3087 3087 3115 3115 3087 3087 3115 3087 3087 3087 3087 3087 3087 3087 3087 3087 3087 3087 3115 3115 3115 3115 3115 3115 3115 3115 3115 3115 3087 3087 3087 3087 3087 3087 3087 3115 3087 3087 3115 3087 3087 3115 3115 3115 3115 3115 3115 3143 3143 3143 3115 3115 3143 3143 3143 3143 3143 3143 3143 3115 3115 3115 3087 3087 3087 3087 3087 3115 3115 3143 3143 3172 3172 3172 3172 3143 3115 3115 3115 3115 3087 3087 3087 3115 3087 3115 3087 3115 3143 3143 3143 3115 3115 3115 3115 3115 3115 3087 3087 3115 3115 3115 3059 3059 3059 3087 3087 3087 3115 3115 3115 3143 3143 3143 3143 3115 3115 3115 3115 3115 3087 3115 3115 3115 3115 3115 3115 3115 3115 3115 3115 3115 3115 3115 3115 3115 3115 3087 3087 3087 3087 3087 3087 3087 3087 3115 3115 3115 3143 3143 3115 3143 3143 3143 3143 3143 3115 3087 3087 3059 3059 3059 3059 3059 3059 3059 3087 3115 3115 3143 3143 3143 3115 3143 3115 3143 3143 3143 3143 3143 3143 3143 3143 3143 3143 3143 3143 3172 3143 3143 3143 3143 3143 3115 3115 3115 3115 3115 3115 3087 3115 3115 3143 3143
    0 0 0 0 0 0 0 0 0 0 0 0 0 0 0 0 0 0 0 0 0 0 0 0 0 0 0 0 0 0 0 0 0 0 0 0 0 0 0 0 0 0 0 0 0 0 0 0 0 0 0 0 0 0 0 0 0 0 0 0 0 0 0 0 0 0 0 0 0 0 0 0 0 0 0 0 0 0 0 0 0 0 0 0 0 0 0 0 0 0 0 0 0 0 0 0 0 0 0 0 0 0 0 0 0 0 0 0 0 0 0 0 0 0 0 0 0 0 3087 3087 3087 3115 3115 3115 3115 3115 3115 3115 3115 3115 3087 3087 3087 3087 3087 3087 3059 3059 3059 3059 3059 3059 3059 3059 3087 3115 3115 3059 3087 3059 3087 3087 3087 3059 3059 3059 3059 3059 3059 3059 3059 3059 3059 3059 3059 3059 3059 3059 3059 3059 3059 3059 3059 3059 3059 3059 3059 3087 3059 3087 3059 3059 3059 3059 3087 3087 3087 3115 3115 3115 3115 3115 3115 3087 3059 3059 3059 3059 3059 3059 3059 3059 3059 3087 3087 3087 3087 3087 3087 3087 3087 3087 3087 3087 3087 3087 3087 3087 3087 3087 3087 3087 3087 3087 3087 3115 3115 3115 3087 3115 3115 3115 3115 3087 3115 3115 3115 3087 3115 3087 3115 3115 3115 3115 3115 3115 3115 3115 3115 3115 3087 3087 3087 3143 3115 3115 3115 3115 3115 3115 3115 3115 3115 3115 3115 3115 3115 3115 3115 3115 3115 3115 3115 3115 3115 3115 3115 3143 3143 3172 2069 2057 2057 2057 2057 2057 2045 2045 2033 2033 2033 2021 2021 2009 1998 1998 1986 1986 1986 1975 1975 1986 1975 1975 1964 1975 1964 1964 1964 1964 1975 1964 1975 1964 1975 1964 1964 1952 1941 1941 1931 1931 1931 1931 1931 1931 1931 1931 1931 1931 1931 1931 1931 1931 1931 1931 1931 1931 1931 1931 1931 1931 1931 1931 1931 1931 1931 1931 1941 1931 1931 1931 1931 1931 1931 1931 1931 1931 1931 1931 1931 1931 1931 1941 1941 1941 1931 1941 1941 1941 1941 1931 1941 1952 1952 1952 1964 1964 1964 1964 1964 1964 1964 1964 1964 1975 1975 1975 1986 1986 1986 1998 1998 2009 2009 2009 2009 2021 2021 2033 2045 2057 2057 2057 0 0 0 0 0 0 0 3115 3115 3115 3115 3115 3115 3115 3143 3143 3143 3143 3143 3143 3143 3143 3143 3143 3143 3115 3115 3115 3115 3115 3087 3087 3087 3115 3115 3115 3115 3115 3115 3115 3115 3087 3087 3087 3115 3115 3115 3115 3115 3115 3115 3115 3115 3115 3115 3115 3143 3143 3115 3115 3115 3115 3087 3115 3115 3087 3087 3115 3115 3115 3115 3087 3087 3115 3143 3115 3115 3115 3115 3143 3143 3143 3115 3143 3143 3143 3143 3143 3143 3143 3143 3143 3143 3115 3087 3087 3115 3087 3115 3115 3115 3143 3143 3172 3143 3172 3143 3143 3115 3115 3115 3115 3087 3087 3087 3115 3087 3115 3115 3115 3143 3143 3143 3115 3143 3143 3143 3115 3115 3115 3115 3115 3115 3115 3059 3059 3059 3087 3087 3087 3087 3087 3115 3143 3143 3143 3143 3115 3115 3115 3115 3115 3115 3115 3115 3115 3115 3143 3115 3115 3115 3115 3115 3115 3143 3115 3115 3115 3115 3115 3087 3087 3087 3087 3115 3087 3087 3087 3115 3115 3115 3143 3143 3143 3143 3172 3143 3143 3143 3143 3143 3115 3115 3059 3059 3059 3059 3087 3087 3087 3087 3143 3115 3115 3115 3115 3115 3143 3143 3143 3143 3143 3143 3143 3143 3143 3143 3172 3143 3172 3143 3143 3143 3143 3143 3115 3115 3115 3115 3115 3115 3087 3115 3115 3115 3115
    0 0 0 0 0 0 0 0 0 0 0 0 0 0 0 0 0 0 0 0 0 0 0 0 0 0 0 0 0 0 0 0 0 0 0 0 0 0 0 0 0 0 0 0 0 0 0 0 0 0 0 0 0 0 0 0 0 0 0 0 0 0 0 0 0 0 0 0 0 0 0 0 0 0 0 0 0 0 0 0 0 0 0 0 0 0 0 0 0 0 0 0 0 0 0 0 0 0 0 0 0 0 0 0 0 0 0 0 0 0 0 0 0 0 0 0 0 0 0 3115 3115 3115 3115 3115 3143 3115 3115 3115 3115 3115 3087 3087 3087 3087 3087 3087 3087 3059 3087 3087 3087 3087 3059 3087 3087 3115 3115 3115 3115 3115 3087 3087 3087 3059 3059 3059 3059 3059 3059 3087 3059 3059 3059 3059 3059 3059 3087 3059 3059 3059 3087 3087 3087 3087 3087 3087 3087 3087 3087 3087 3087 3087 3087 3087 3087 3087 3087 3115 3115 3115 3115 3115 3115 3115 3087 3087 3087 3087 3087 3087 3087 3087 3087 3087 3115 3087 3087 3087 3087 3087 3087 3087 3087 3087 3087 3087 3115 3087 3087 3087 3087 3087 3087 3087 3087 3115 3115 3115 3087 3115 3115 3115 3115 3087 3087 3115 3115 3087 3115 3087 3115 3115 3115 3115 3115 3115 3115 3143 3115 3115 3115 3115 3115 3115 3115 3115 3115 3115 3115 3115 3115 3115 3115 3115 3115 3115 3115 3115 3115 3115 3115 3115 3115 3115 3115 3115 3143 3143 3172 3143 2057 2057 2057 2057 2057 2057 2057 2045 2045 2033 2033 2021 2021 2009 1998 1998 1998 1986 1986 1986 1975 1986 1975 1975 1975 1975 1975 1975 1975 1975 1975 1975 1975 1975 1975 1964 1964 1964 1952 1952 1931 1941 1941 1941 1931 1931 1931 1931 1931 1931 1931 1931 1931 1931 1931 1931 1931 1931 1931 1931 1931 1931 1931 1941 1931 1931 1941 1931 1941 1931 1931 1931 1931 1931 1931 1931 1931 1931 1931 1931 1931 1931 1931 1941 1941 1941 1931 1941 1941 1941 1941 1941 1952 1952 1964 1964 1964 1964 1964 1964 1964 1964 1975 1964 1975 1975 1975 1975 1986 1998 1998 2009 2009 2009 2009 2009 2021 2021 2033 2033 2057 2069 2069 2057 0 0 0 0 0 0 0 0 3115 3115 3115 3115 3143 3143 3143 3143 3143 3143 3143 3143 3143 3143 3143 3172 3172 3115 3115 3115 3115 3115 3087 3087 3087 3115 3115 3115 3115 3115 3143 3115 3115 3115 3087 3087 3115 3115 3115 3115 3115 3115 3143 3115 3115 3115 3115 3115 3143 3115 3143 3115 3115 3115 3087 3115 3115 3115 3087 3115 3115 3115 3115 3115 3115 3115 3143 3143 3143 3143 3143 3143 3143 3143 3143 3143 3143 3143 3143 3143 3143 3143 3143 3143 3143 3115 3115 3115 3115 3115 3115 3143 3143 3143 3172 3172 3143 3172 3172 3143 3143 3143 3143 3115 3087 3087 3087 3115 3087 3087 3087 3115 3143 3143 3143 3143 3143 3143 3143 3115 3115 3115 3115 3115 3115 3115 3087 3087 3087 3087 3115 3115 3115 3115 3115 3143 3143 3143 3143 3115 3115 3115 3143 3115 3115 3143 3143 3143 3143 3143 3143 3143 3143 3143 3143 3143 3143 3143 3115 3115 3115 3115 3087 3087 3087 3087 3115 3087 3115 3115 3115 3115 3143 3143 3143 3143 3143 3172 3172 3143 3143 3115 3115 3087 3059 3059 3087 3087 3087 3087 3087 3143 3143 3143 3115 3115 3115 3115 3115 3115 3115 3115 3115 3143 3143 3143 3143 3143 3143 3172 3143 3172 3143 3143 3143 3143 3143 3115 3115 3115 3115 3115 3115 3115 3115 3115 3115 3115
    0 0 0 0 0 0 0 0 0 0 0 0 0 0 0 0 0 0 0 0 0 0 0 0 0 0 0 0 0 0 0 0 0 0 0 0 0 0 0 0 0 0 0 0 0 0 0 0 0 0 0 0 0 0 0 0 0 0 0 0 0 0 0 0 0 0 0 0 0 0 0 0 0 0 0 0 0 0 0 0 0 0 0 0 0 0 0 0 0 0 0 0 0 0 0 0 0 0 0 0 0 0 0 0 0 0 0 0 0 0 0 0 0 0 0 0 0 0 0 3143 3115 3143 3143 3143 3143 3143 3143 3115 3143 3115 3115 3087 3087 3115 3115 3115 3115 3059 3087 3087 3087 3087 3087 3087 3087 3115 3115 3115 3115 3115 3115 3115 3087 3087 3087 3087 3087 3087 3087 3087 3087 3087 3059 3059 3059 3087 3087 3087 3087 3087 3087 3087 3087 3087 3087 3087 3087 3115 3115 3115 3115 3087 3087 3115 3087 3115 3115 3115 3115 3115 3115 3115 3115 3115 3115 3087 3087 3087 3087 3087 3087 3087 3115 3115 3115 3115 3115 3115 3115 3115 3087 3087 3087 3087 3087 3087 3087 3087 3087 3087 3087 3087 3115 3087 3087 3115 3115 3115 3087 3087 3115 3115 3115 3087 3087 3115 3115 3087 3115 3115 3115 3115 3115 3115 3115 3115 3115 3115 3115 3115 3115 3115 3115 3115 3115 3115 3115 3115 3143 3115 3115 3115 3115 3115 3115 3115 3115 3143 3143 3143 3115 3115 3115 3143 3143 3143 3143 3143 3143 3143 3172 2069 2057 2069 2069 2057 2057 2057 2045 2033 2033 2033 2021 2021 2009 1998 1998 1986 1986 1986 1986 1986 1986 1975 1975 1975 1975 1975 1975 1975 1975 1975 1975 1975 1975 1975 1964 1964 1964 1952 1941 1941 1941 1931 1931 1931 1931 1931 1931 1931 1931 1931 1931 1931 1931 1931 1931 1931 1931 1931 1931 1931 1931 1941 1941 1931 1941 1931 1941 1931 1931 1931 1931 1931 1931 1931 1931 1931 1931 1931 1931 1931 1941 1941 1941 1941 1941 1941 1952 1941 1941 1941 1964 1964 1964 1964 1964 1964 1964 1975 1975 1975 1975 1975 1975 1975 1975 1986 1998 2009 1998 2009 2009 2021 2021 2021 2033 2033 2045 2057 2069 2069 2069 2069 0 0 0 0 0 0 0 0 3115 3143 3143 3143 3143 3143 3143 3143 3143 3143 3143 3143 3143 3143 3172 3172 3172 3143 3143 3143 3115 3115 3087 3087 3087 3115 3115 3115 3115 3115 3143 3143 3143 3115 3115 3115 3143 3115 3143 3143 3143 3143 3143 3143 3115 3115 3115 3115 3115 3115 3143 3115 3115 3115 3115 3115 3115 3115 3087 3115 3115 3115 3115 3115 3115 3115 3143 3143 3143 3143 3143 3143 3143 3172 3143 3172 3172 3172 3172 3172 3143 3143 3143 3143 3143 3143 3115 3143 3143 3143 3143 3143 3143 3172 3172 3172 3143 3143 3143 3143 3143 3143 3143 3115 3115 3115 3115 3115 3115 3087 3087 3143 3143 3143 3172 3172 3143 3172 3172 3143 3143 3115 3115 3115 3115 3115 3087 3087 3087 3115 3115 3115 3115 3115 3143 3143 3143 3143 3143 3143 3143 3143 3143 3115 3115 3143 3143 3143 3143 3143 3143 3143 3143 3115 3115 3115 3143 3143 3143 3143 3115 3115 3115 3115 3087 3087 3087 3087 3087 3087 3087 3115 3115 3143 3143 3143 3143 3172 3172 3172 3172 3143 3143 3115 3087 3087 3087 3115 3087 3087 3087 3087 3115 3115 3115 3115 3143 3115 3143 3143 3143 3115 3115 3143 3143 3143 3143 3143 3143 3172 3172 3172 3172 3143 3143 3143 3143 3115 3115 3115 3115 3115 3115 3115 3115 3115 3115 3115
    0 0 0 0 0 0 0 0 0 0 0 0 0 0 0 0 0 0 0 0 0 0 0 0 0 0 0 0 0 0 0 0 0 0 0 0 0 0 0 0 0 0 0 0 0 0 0 0 0 0 0 0 0 0 0 0 0 0 0 0 0 0 0 0 0 0 0 0 0 0 0 0 0 0 0 0 0 0 0 0 0 0 0 0 0 0 0 0 0 0 0 0 0 0 0 0 0 0 0 0 0 0 0 0 0 0 0 0 0 0 0 0 0 0 0 0 0 0 3172 3143 3143 3143 3143 3143 3143 3143 3143 3143 3143 3143 3115 3115 3115 3115 3115 3115 3115 3115 3115 3115 3115 3115 3115 3087 3115 3115 3143 3143 3115 3115 3115 3115 3087 3087 3087 3087 3087 3115 3115 3115 3115 3115 3087 3087 3115 3115 3087 3087 3087 3087 3087 3087 3087 3087 3087 3087 3087 3115 3115 3115 3115 3115 3115 3115 3115 3115 3115 3115 3143 3115 3115 3115 3143 3115 3115 3115 3115 3115 3087 3115 3087 3087 3115 3115 3115 3115 3115 3115 3115 3115 3087 3087 3087 3087 3087 3087 3087 3087 3115 3087 3087 3087 3115 3087 3115 3115 3115 3115 3115 3115 3115 3115 3115 3115 3115 3115 3115 3115 3115 3115 3115 3115 3115 3115 3143 3115 3115 3115 3115 3115 3115 3115 3115 3115 3115 3115 3115 3115 3143 3143 3143 3143 3143 3143 3143 3143 3143 3143 3143 3143 3143 3143 3143 3143 3143 3143 3143 3172 3172 3172 3201 2069 2069 2069 2069 2069 2057 2057 2045 2045 2033 2033 2033 2021 2021 2009 1998 1986 1986 1986 1986 1986 1986 1975 1975 1975 1975 1975 1975 1975 1975 1975 1975 1975 1975 1975 1964 1964 1964 1964 1952 1941 1941 1941 1941 1931 1931 1941 1931 1931 1931 1931 1931 1931 1931 1931 1931 1931 1931 1931 1931 1931 1941 1941 1941 1941 1941 1941 1941 1941 1931 1931 1931 1931 1931 1931 1931 1931 1941 1931 1931 1941 1941 1941 1952 1941 1941 1952 1952 1952 1952 1952 1964 1964 1964 1964 1964 1964 1975 1975 1975 1975 1975 1975 1975 1986 1986 1998 1998 2009 2009 2009 2009 2021 2021 2021 2033 2045 2045 2057 2069 2082 2082 2082 0 0 0 0 0 0 0 3143 3115 3143 3143 3143 3143 3143 3143 3143 3143 3143 3143 3143 3172 3172 3172 3201 3201 3143 3143 3143 3143 3115 3115 3087 3087 3115 3115 3115 3115 3143 3143 3143 3143 3143 3115 3143 3143 3143 3143 3143 3143 3143 3143 3143 3115 3115 3115 3143 3143 3143 3143 3143 3143 3115 3115 3115 3115 3115 3115 3115 3115 3115 3143 3115 3143 3143 3172 3172 3143 3172 3143 3143 3143 3172 3143 3172 3172 3172 3172 3172 3172 3143 3172 3172 3143 3143 3143 3143 3172 3143 3143 3143 3143 3172 3172 3172 3143 3172 3172 3143 3172 3172 3143 3143 3143 3143 3143 3143 3115 3115 3115 3143 3143 3172 3172 3172 3172 3172 3172 3172 3143 3115 3115 3115 3172 3115 3087 3087 3115 3115 3143 3143 3143 3143 3143 3172 3143 3143 3143 3143 3143 3143 3143 3143 3143 3143 3143 3143 3143 3143 3143 3143 3143 3143 3143 3143 3143 3143 3143 3143 3143 3143 3115 3115 3087 3087 3087 3087 3087 3087 3087 3115 3115 3115 3143 3143 3143 3172 3143 3172 3172 3143 3143 3115 3087 3087 3115 3115 3087 3115 3115 3115 3115 3143 3115 3143 3143 3143 3143 3143 3143 3143 3115 3115 3143 3143 3143 3143 3143 3172 3172 3172 3172 3143 3143 3143 3143 3115 3115 3115 3115 3115 3115 3115 3115 3143 3143 3115
    0 0 0 0 0 0 0 0 0 0 0 0 0 0 0 0 0 0 0 0 0 0 0 0 0 0 0 0 0 0 0 0 0 0 0 0 0 0 0 0 0 0 0 0 0 0 0 0 0 0 0 0 0 0 0 0 0 0 0 0 0 0 0 0 0 0 0 0 0 0 0 0 0 0 0 0 0 0 0 0 0 0 0 0 0 0 0 0 0 0 0 0 0 0 0 0 0 0 0 0 0 0 0 0 0 0 0 0 0 0 0 0 0 0 0 0 0 0 3143 3143 3143 3143 3143 3143 3143 3143 3143 3143 3143 3143 3143 3115 3115 3115 3115 3143 3115 3115 3115 3115 3115 3143 3115 3087 3115 3115 3143 3143 3115 3115 3115 3115 3115 3087 3115 3115 3115 3115 3115 3115 3115 3115 3115 3087 3115 3115 3115 3115 3143 3087 3115 3087 3087 3087 3087 3087 3087 3115 3115 3115 3115 3143 3115 3143 3115 3115 3115 3115 3115 3115 3115 3115 3143 3115 3115 3115 3115 3115 3115 3115 3115 3115 3115 3115 3115 3115 3115 3143 3115 3115 3087 3087 3087 3087 3087 3087 3087 3115 3115 3087 3115 3115 3115 3115 3115 3115 3115 3115 3115 3115 3115 3115 3115 3115 3115 3115 3115 3115 3115 3115 3115 3115 3115 3143 3143 3143 3143 3115 3143 3115 3115 3115 3115 3115 3115 3115 3115 3115 3143 3143 3143 3143 3143 3143 3143 3143 3143 3143 3143 3143 3143 3143 3143 3143 3172 3172 3172 3172 3172 3201 3201 3201 2069 2069 2069 2069 2057 2057 2045 2045 2033 2033 2033 2033 2021 2021 2009 1998 1998 1986 1986 1986 1986 1975 1975 1975 1975 1975 1975 1975 1975 1975 1975 1975 1975 1975 1964 1964 1964 1964 1952 1952 1952 1941 1941 1931 1931 1941 1931 1941 1931 1931 1931 1941 1931 1931 1931 1931 1941 1941 1941 1941 1941 1952 1941 1941 1941 1941 1941 1941 1941 1941 1941 1931 1931 1941 1931 1941 1941 1931 1941 1941 1941 1941 1952 1952 1952 1952 1964 1964 1964 1964 1964 1964 1975 1975 1975 1975 1975 1975 1986 1986 1986 1986 1986 1986 1986 1998 2009 2009 2009 2021 2021 2021 2021 2033 2045 2045 2057 2069 2069 2082 2082 2082 0 0 0 0 0 0 3143 3143 3143 3143 3143 3172 3172 3143 3143 3143 3172 3172 3143 3172 3172 3172 3172 3201 3201 3172 3172 3143 3143 3143 3115 3115 3115 3115 3115 3143 3115 3143 3143 3172 3172 3143 3143 3143 3143 3143 3172 3143 3143 3143 3143 3143 3143 3115 3115 3143 3172 3172 3143 3143 3143 3143 3143 3143 3143 3172 3143 3143 3143 3143 3143 3143 3143 3143 3172 3172 3172 3172 3172 3172 3143 3172 3172 3172 3172 3172 3172 3172 3172 3172 3172 3172 3172 3172 3172 3172 3172 3172 3172 3172 3172 3172 3172 3172 3172 3172 3172 3172 3172 3172 3172 3172 3172 3172 3172 3143 3143 3143 3143 3143 3143 3172 3172 3172 3172 3172 3172 3172 3172 3143 3143 3143 3172 3172 3087 3087 3115 3115 3143 3143 3143 3143 3172 3172 3172 3143 3143 3143 3143 3143 3143 3143 3143 3143 3143 3143 3143 3143 3143 3143 3143 3143 3143 3143 3143 3143 3143 3143 3143 3143 3143 3115 3115 3087 3115 3115 3115 3115 3087 3115 3115 3143 3143 3143 3143 3172 3172 3172 3172 3172 3172 3143 3115 3115 3143 3143 3115 3143 3143 3143 3143 3143 3143 3143 3143 3143 3143 3143 3172 3143 3143 3143 3143 3143 3143 3172 3172 3172 3172 3172 3143 3172 3172 3143 3143 3143 3115 3115 3115 3115 3143 3143 3143 3143 3143 3115
    0 0 0 0 0 0 0 0 0 0 0 0 0 0 0 0 0 0 0 0 0 0 0 0 0 0 0 0 0 0 0 0 0 0 0 0 0 0 0 0 0 0 0 0 0 0 0 0 0 0 0 0 0 0 0 0 0 0 0 0 0 0 0 0 0 0 0 0 0 0 0 0 0 0 0 0 0 0 0 0 0 0 0 0 0 0 0 0 0 0 0 0 0 0 0 0 0 0 0 0 0 0 0 0 0 0 0 0 0 0 0 0 0 0 0 0 0 0 3172 3143 3143 3143 3143 3143 3143 3143 3143 3143 3143 3143 3143 3143 3143 3143 3143 3143 3143 3143 3143 3143 3143 3143 3143 3115 3143 3143 3143 3143 3143 3115 3115 3143 3115 3115 3143 3115 3115 3115 3143 3143 3143 3143 3115 3115 3143 3143 3143 3143 3143 3087 3115 3115 3087 3087 3087 3115 3115 3115 3115 3143 3143 3143 3115 3115 3115 3115 3115 3115 3115 3143 3115 3115 3143 3115 3115 3115 3115 3115 3115 3115 3115 3115 3115 3115 3143 3143 3143 3143 3143 3115 3087 3087 3087 3087 3087 3087 3087 3087 3115 3115 3115 3115 3115 3115 3115 3115 3115 3115 3115 3115 3115 3115 3115 3115 3115 3115 3115 3115 3115 3115 3115 3115 3115 3143 3143 3143 3143 3143 3143 3143 3143 3143 3143 3143 3143 3143 3143 3143 3143 3143 3143 3143 3143 3143 3143 3143 3143 3143 3143 3143 3143 3143 3143 3143 3172 3172 3172 3172 3172 3201 3201 3201 2082 2082 2069 2069 2057 2057 2045 2045 2033 2033 2033 2033 2021 2021 2009 2009 2009 1998 1986 1986 1986 1986 1986 1986 1986 1986 1975 1975 1975 1975 1975 1975 1975 1975 1964 1964 1964 1964 1952 1952 1952 1952 1952 1941 1941 1941 1941 1941 1941 1931 1931 1941 1941 1931 1931 1931 1941 1941 1941 1941 1941 1952 1952 1952 1952 1941 1952 1941 1941 1941 1941 1941 1941 1941 1941 1941 1941 1941 1941 1941 1952 1952 1952 1952 1964 1964 1964 1964 1964 1964 1964 1975 1975 1975 1975 1975 1986 1986 1986 1986 1986 1986 1998 1998 1998 2009 2009 2009 2009 2021 2021 2021 2033 2045 2057 2057 2069 2069 2082 2095 2082 2082 0 0 0 0 0 3172 3143 3172 3172 3172 3172 3172 3172 3172 3172 3172 3201 3172 3172 3172 3172 3201 3201 3201 3201 3172 3172 3172 3143 3143 3143 3143 3115 3143 3143 3143 3143 3172 3172 3172 3172 3172 3143 3172 3172 3143 3172 3143 3143 3172 3172 3143 3172 3172 3115 3172 3172 3172 3172 3143 3143 3143 3143 3143 3143 3143 3115 3143 3143 3143 3143 3143 3172 3172 3172 3172 3172 3172 3172 3172 3172 3172 3172 3172 3172 3172 3172 3172 3172 3172 3172 3172 3172 3172 3172 3172 3172 3172 3172 3172 3172 3172 3172 3172 3172 3172 3172 3172 3172 3201 3201 3201 3201 3201 3201 3172 3172 3172 3172 3172 3172 3172 3172 3172 3172 3172 3201 3172 3172 3172 3143 3143 3172 3172 3143 3143 3115 3143 3143 3143 3172 3172 3172 3172 3172 3172 3143 3143 3143 3143 3143 3143 3143 3143 3143 3172 3143 3143 3143 3143 3143 3143 3143 3143 3143 3143 3143 3143 3143 3143 3143 3115 3115 3115 3115 3115 3115 3115 3115 3115 3115 3143 3143 3143 3143 3172 3143 3172 3172 3172 3172 3143 3143 3115 3143 3143 3115 3115 3143 3143 3143 3143 3143 3143 3143 3143 3143 3143 3172 3143 3172 3115 3143 3143 3172 3143 3143 3172 3172 3143 3143 3143 3143 3143 3143 3143 3143 3143 3143 3143 3143 3143 3143 3143 3115 3115
    0 0 0 0 0 0 0 0 0 0 0 0 0 0 0 0 0 0 0 0 0 0 0 0 0 0 0 0 0 0 0 0 0 0 0 0 0 0 0 0 0 0 0 0 0 0 0 0 0 0 0 0 0 0 0 0 0 0 0 0 0 0 0 0 0 0 0 0 0 0 0 0 0 0 0 0 0 0 0 0 0 0 0 0 0 0 0 0 0 0 0 0 0 0 0 0 0 0 0 0 0 0 0 0 0 0 0 0 0 0 0 0 0 0 0 0 0 0 3172 3143 3143 3143 3143 3143 3143 3143 3143 3143 3143 3143 3143 3143 3143 3143 3143 3143 3143 3143 3143 3143 3143 3143 3143 3143 3143 3143 3143 3143 3115 3115 3115 3143 3115 3143 3143 3143 3143 3143 3143 3143 3143 3143 3143 3143 3143 3143 3143 3143 3115 3115 3115 3115 3115 3115 3115 3115 3115 3143 3143 3143 3143 3143 3143 3143 3115 3115 3115 3115 3115 3115 3115 3115 3143 3143 3143 3143 3143 3143 3143 3143 3143 3143 3143 3143 3143 3143 3143 3143 3143 3143 3115 3115 3087 3087 3087 3087 3115 3115 3115 3115 3115 3115 3143 3115 3115 3115 3143 3115 3115 3115 3115 3115 3115 3143 3115 3115 3115 3115 3115 3115 3115 3115 3143 3143 3143 3143 3143 3143 3143 3143 3143 3143 3143 3143 3143 3143 3143 3143 3143 3143 3172 3172 3172 3172 3143 3172 3172 3143 3143 3143 3143 3143 3143 3172 3172 3172 3172 3172 3172 3201 3201 3201 3172 2069 2069 2069 2069 2057 2057 2033 2033 2033 2033 2033 2021 2021 2009 2009 2009 1998 1998 1986 1986 1986 1986 1986 1986 1986 1975 1975 1975 1975 1975 1975 1975 1975 1975 1975 1964 1964 1952 1952 1952 1941 1952 1952 1941 1941 1941 1941 1941 1941 1941 1941 1931 1931 1931 1931 1941 1941 1941 1941 1941 1952 1952 1952 1941 1941 1941 1941 1941 1941 1941 1941 1941 1941 1941 1941 1941 1941 1941 1952 1952 1952 1964 1964 1964 1964 1964 1964 1964 1964 1975 1975 1975 1975 1975 1986 1986 1986 1986 1986 1986 1986 1998 1998 1998 2009 2009 2009 2009 2021 2021 2033 2045 2057 2057 2057 2069 2082 2082 2082 2082 2095 0 0 0 0 3201 3201 3201 3172 3172 3172 3172 3201 3201 3172 3201 3172 3201 3201 3201 3201 3201 3201 3201 3201 3201 3172 3172 3172 3143 3143 3143 3143 3143 3143 3172 3172 3172 3172 3172 3172 3172 3172 3172 3172 3172 3172 3172 3172 3172 3172 3172 3172 3172 3172 3143 3172 3172 3172 3172 3172 3172 3172 3172 3143 3143 3143 3143 3143 3143 3143 3172 3172 3172 3172 3172 3172 3172 3172 3172 3172 3172 3172 3172 3172 3172 3172 3172 3172 3172 3172 3172 3172 3172 3172 3172 3172 3172 3172 3172 3172 3172 3172 3172 3172 3172 3172 3172 3172 3201 3201 3201 3201 3231 3231 3201 3201 3201 3172 3172 3172 3172 3172 3172 3201 3201 3201 3201 3201 3201 3172 3172 3172 3172 3172 3143 3143 3143 3143 3143 3172 3172 3172 3172 3172 3172 3172 3172 3172 3172 3172 3172 3143 3143 3143 3143 3143 3143 3143 3143 3143 3143 3143 3143 3143 3143 3143 3143 3143 3143 3143 3143 3143 3143 3115 3143 3143 3115 3115 3115 3115 3143 3143 3143 3143 3143 3172 3143 3172 3172 3172 3143 3143 3143 3115 3143 3143 3143 3143 3143 3143 3143 3143 3143 3172 3172 3172 3172 3143 3172 3172 3143 3143 3172 3143 3172 3172 3172 3172 3172 3172 3172 3172 3172 3172 3172 3143 3143 3143 3143 3143 3143 3143 3143 3143 3143 3115
    0 0 0 0 0 0 0 0 0 0 0 0 0 0 0 0 0 0 0 0 0 0 0 0 0 0 0 0 0 0 0 0 0 0 0 0 0 0 0 0 0 0 0 0 0 0 0 0 0 0 0 0 0 0 0 0 0 0 0 0 0 0 0 0 0 0 0 0 0 0 0 0 0 0 0 0 0 0 0 0 0 0 0 0 0 0 0 0 0 0 0 0 0 0 0 0 0 0 0 0 0 0 0 0 0 0 0 0 0 0 0 0 0 0 0 0 0 0 3172 3172 3143 3143 3143 3143 3143 3143 3143 3143 3143 3172 3143 3143 3143 3143 3143 3143 3143 3143 3143 3143 3143 3143 3143 3143 3143 3143 3143 3143 3143 3115 3115 3143 3143 3143 3143 3143 3143 3143 3143 3143 3143 3143 3143 3143 3143 3143 3143 3143 3115 3115 3115 3115 3115 3115 3115 3143 3143 3143 3143 3143 3143 3143 3143 3143 3115 3115 3115 3115 3115 3115 3115 3143 3143 3143 3143 3143 3143 3143 3143 3143 3143 3143 3143 3143 3143 3143 3143 3143 3143 3143 3115 3115 3087 3115 3115 3115 3115 3115 3115 3115 3115 3115 3143 3143 3143 3143 3143 3143 3143 3143 3115 3143 3143 3143 3115 3115 3143 3143 3143 3143 3143 3143 3143 3143 3143 3143 3143 3143 3143 3143 3143 3143 3143 3143 3143 3172 3172 3172 3172 3172 3201 3201 3201 3172 3172 3172 3172 3172 3172 3143 3143 3172 3172 3172 3172 3172 3172 3201 3201 3201 3201 3201 3201 2069 2069 2069 2069 2069 2045 2033 2045 2045 2033 2033 2033 2021 2021 2021 2021 2009 1998 1998 1998 1998 1998 1998 1986 1986 1986 1975 1975 1975 1975 1975 1975 1975 1975 1975 1964 1964 1952 1952 1952 1941 1941 1941 1952 1952 1941 1952 1952 1952 1941 1952 1941 1941 1941 1941 1941 1941 1941 1941 1952 1952 1952 1952 1952 1941 1941 1941 1941 1941 1941 1941 1941 1952 1952 1952 1952 1952 1952 1952 1952 1964 1964 1964 1964 1964 1964 1964 1975 1975 1975 1975 1975 1975 1975 1986 1998 1998 1998 1998 1998 1998 2009 1998 1998 2009 2009 2021 2021 2033 2033 2045 2057 2057 2069 2069 2082 2082 2095 2095 2095 0 0 0 0 3201 3201 3201 3201 3201 3201 3201 3201 3201 3201 3201 3201 3201 3201 3201 3201 3201 3201 3201 3201 3201 3201 3172 3172 3172 3172 3172 3172 3172 3172 3172 3172 3172 3172 3172 3172 3172 3172 3172 3172 3172 3172 3172 3172 3172 3172 3172 3172 3172 3172 3172 3143 3172 3172 3172 3172 3172 3172 3172 3172 3172 3172 3172 3172 3143 3172 3143 3172 3172 3172 3172 3172 3172 3172 3201 3172 3172 3172 3172 3172 3172 3172 3172 3172 3172 3172 3172 3201 3201 3172 3201 3172 3201 3201 3201 3201 3201 3172 3172 3172 3172 3172 3172 3172 3172 3201 3201 3201 3201 3201 3201 3201 3201 3201 3172 3172 3172 3172 3201 3201 3201 3201 3201 3201 3201 3201 3172 3172 3172 3143 3143 3143 3143 3143 3143 3172 3172 3172 3172 3172 3172 3172 3172 3172 3172 3172 3172 3172 3172 3143 3143 3172 3143 3143 3143 3143 3143 3143 3143 3143 3143 3143 3143 3143 3143 3143 3143 3143 3143 3172 3143 3143 3172 3143 3143 3143 3143 3143 3143 3143 3143 3143 3172 3143 3172 3172 3172 3143 3143 3143 3143 3172 3143 3143 3143 3143 3143 3143 3143 3143 3172 3172 3172 3172 3172 3201 3172 3172 3143 3143 3172 3172 3172 3201 3201 3201 3172 3172 3172 3172 3172 3172 3172 3143 3143 3143 3143 3143 3143 3143 3143 3143 3115
    0 0 0 0 0 0 0 0 0 0 0 0 0 0 0 0 0 0 0 0 0 0 0 0 0 0 0 0 0 0 0 0 0 0 0 0 0 0 0 0 0 0 0 0 0 0 0 0 0 0 0 0 0 0 0 0 0 0 0 0 0 0 0 0 0 0 0 0 0 0 0 0 0 0 0 0 0 0 0 0 0 0 0 0 0 0 0 0 0 0 0 0 0 0 0 0 0 0 0 0 0 0 0 0 0 0 0 0 0 0 0 0 0 0 0 0 0 0 3172 3172 3143 3143 3143 3143 3143 3143 3143 3143 3143 3172 3172 3143 3143 3143 3143 3143 3143 3143 3143 3143 3143 3143 3143 3143 3143 3143 3143 3143 3143 3115 3115 3172 3172 3172 3172 3172 3143 3143 3143 3143 3143 3143 3143 3143 3143 3143 3143 3143 3115 3115 3143 3143 3143 3143 3143 3143 3143 3143 3143 3172 3143 3143 3143 3143 3143 3143 3143 3115 3115 3115 3143 3143 3143 3143 3143 3143 3143 3143 3143 3143 3143 3143 3143 3143 3143 3143 3143 3143 3143 3143 3115 3115 3115 3115 3115 3115 3115 3115 3143 3115 3143 3143 3143 3143 3143 3143 3143 3143 3143 3143 3143 3143 3143 3143 3143 3143 3143 3143 3143 3143 3143 3143 3143 3143 3143 3143 3143 3143 3143 3143 3143 3172 3143 3172 3172 3172 3201 3201 3172 3201 3201 3201 3201 3172 3172 3172 3172 3172 3172 3143 3172 3172 3172 3172 3172 3201 3201 3201 3201 3201 3201 3201 3201 3201 3201 2082 2082 2082 2045 2045 2045 2045 2033 2033 2033 2033 2021 2021 2021 2009 2009 1998 1998 1998 1998 1998 1986 1986 1986 1975 1975 1975 1975 1975 1975 1975 1975 1975 1975 1964 1952 1964 1952 1952 1952 1952 1952 1952 1952 1952 1952 1952 1952 1952 1941 1941 1941 1941 1941 1941 1941 1952 1952 1952 1952 1952 1952 1952 1952 1952 1941 1952 1952 1941 1952 1952 1952 1952 1952 1952 1952 1964 1964 1964 1964 1964 1975 1975 1975 1975 1975 1975 1975 1986 1986 1986 1986 1998 1998 1998 1998 1998 2009 2009 2009 2009 2009 2009 2021 2021 2021 2033 2045 2057 2057 2069 2069 2082 2095 2095 2095 2095 2095 0 0 0 0 3172 3172 3172 3201 3201 3201 3201 3201 3201 3231 3201 3201 3201 3201 3201 3201 3201 3201 3201 3201 3231 3231 3201 3172 3172 3172 3172 3172 3172 3172 3172 3172 3172 3172 3201 3172 3172 3172 3172 3172 3172 3172 3172 3172 3172 3172 3172 3172 3172 3172 3172 3172 3172 3172 3172 3172 3172 3172 3172 3172 3172 3172 3172 3172 3172 3172 3172 3172 3172 3172 3172 3172 3172 3172 3201 3201 3201 3172 3172 3172 3201 3201 3201 3201 3172 3201 3201 3201 3201 3201 3201 3201 3201 3201 3201 3201 3201 3201 3201 3201 3201 3201 3172 3172 3201 3201 3201 3201 3201 3201 3231 3201 3201 3201 3172 3172 3172 3172 3201 3201 3201 3201 3231 3231 3201 3201 3201 3172 3172 3172 3172 3143 3143 3172 3172 3172 3172 3172 3172 3172 3201 3172 3172 3172 3172 3201 3172 3172 3172 3172 3172 3172 3172 3143 3143 3143 3143 3143 3143 3143 3143 3143 3143 3143 3115 3143 3143 3143 3143 3143 3143 3143 3143 3143 3143 3143 3143 3143 3143 3172 3143 3143 3172 3172 3172 3172 3172 3143 3172 3172 3143 3172 3172 3172 3172 3172 3172 3172 3172 3172 3172 3172 3201 3201 3172 3201 3201 3201 3172 3172 3172 3172 3201 3201 3201 3201 3172 3172 3172 3172 3201 3172 3172 3172 3172 3172 3172 3172 3172 3172 3172 3143 3143
    0 0 0 0 0 0 0 0 0 0 0 0 0 0 0 0 0 0 0 0 0 0 0 0 0 0 0 0 0 0 0 0 0 0 0 0 0 0 0 0 0 0 0 0 0 0 0 0 0 0 0 0 0 0 0 0 0 0 0 0 0 0 0 0 0 0 0 0 0 0 0 0 0 0 0 0 0 0 0 0 0 0 0 0 0 0 0 0 0 0 0 0 0 0 0 0 0 0 0 0 0 0 0 0 0 0 0 0 0 0 0 0 0 0 0 0 0 0 3143 3172 3143 3143 3143 3143 3172 3172 3172 3172 3172 3172 3172 3172 3143 3143 3143 3143 3143 3143 3172 3172 3172 3172 3172 3172 3143 3143 3143 3143 3143 3143 3172 3172 3172 3172 3172 3172 3172 3143 3143 3143 3143 3143 3143 3143 3143 3143 3143 3115 3115 3115 3143 3143 3143 3143 3143 3143 3143 3143 3143 3172 3172 3172 3143 3172 3172 3143 3143 3143 3143 3143 3143 3143 3143 3143 3143 3143 3143 3143 3143 3143 3143 3143 3143 3143 3172 3172 3172 3172 3172 3172 3115 3143 3115 3115 3143 3143 3143 3143 3143 3143 3143 3143 3143 3143 3143 3143 3143 3143 3143 3143 3143 3143 3143 3143 3143 3143 3143 3172 3172 3172 3172 3172 3172 3172 3172 3172 3172 3201 3172 3172 3201 3201 3201 3172 3201 3201 3201 3201 3172 3201 3201 3201 3201 3201 3172 3172 3172 3172 3172 3172 3172 3172 3201 3172 3201 3201 3201 3201 3201 3201 3201 3201 3231 3231 3201 3231 3262 2082 2082 2045 2045 2045 2045 2033 2033 2033 2033 2033 2021 2021 2021 2021 2009 2009 2009 2009 1986 1986 1986 1975 1975 1975 1975 1975 1975 1975 1975 1975 1975 1964 1952 1952 1952 1952 1952 1952 1952 1952 1952 1952 1952 1952 1952 1952 1952 1952 1952 1952 1952 1952 1952 1952 1964 1964 1964 1964 1964 1964 1964 1952 1952 1952 1952 1952 1952 1952 1952 1964 1952 1964 1964 1964 1964 1964 1964 1964 1975 1975 1975 1975 1975 1975 1986 1986 1986 1986 1986 1998 2009 2009 2009 2009 2009 2009 2009 2009 2009 2021 2021 2033 2033 2045 2057 2069 2069 2082 2082 2082 2095 2095 2107 2095 0 0 0 0 0 3172 3172 3172 3201 3201 3201 3201 3201 3201 3231 3231 3231 3231 3231 3231 3231 3231 3231 3231 3231 3231 3231 3201 3172 3172 3172 3172 3172 3172 3172 3172 3172 3172 3172 3201 3201 3201 3201 3172 3172 3201 3172 3172 3172 3172 3172 3172 3172 3172 3201 3201 3172 3172 3172 3172 3172 3172 3172 3172 3201 3201 3172 3172 3172 3172 3172 3172 3172 3172 3172 3172 3201 3201 3201 3201 3201 3201 3201 3172 3172 3201 3201 3201 3201 3201 3201 3201 3201 3201 3201 3201 3201 3201 3201 3201 3201 3201 3201 3201 3201 3201 3201 3201 3201 3201 3201 3231 3201 3201 3231 3231 3201 3201 3201 3201 3201 3201 3172 3201 3201 3201 3231 3231 3231 3231 3231 3231 3201 3201 3172 3172 3143 3143 3172 3172 3172 3172 3172 3172 3172 3172 3172 3172 3172 3172 3201 3201 3201 3172 3172 3172 3172 3172 3172 3172 3143 3172 3172 3172 3143 3143 3143 3143 3115 3115 3115 3143 3143 3143 3172 3143 3143 3172 3143 3143 3143 3143 3143 3143 3172 3143 3143 3172 3172 3201 3201 3172 3172 3172 3201 3172 3172 3172 3172 3172 3172 3172 3172 3172 3172 3172 3172 3201 3201 3201 3231 3231 3262 3231 3231 3172 3201 3201 3231 3201 3201 3172 3172 3172 3172 3172 3172 3201 3172 3172 3172 3172 3172 3143 3172 3172 3143 3143
    0 0 0 0 0 0 0 0 0 0 0 0 0 0 0 0 0 0 0 0 0 0 0 0 0 0 0 0 0 0 0 0 0 0 0 0 0 0 0 0 0 0 0 0 0 0 0 0 0 0 0 0 0 0 0 0 0 0 0 0 0 0 0 0 0 0 0 0 0 0 0 0 0 0 0 0 0 0 0 0 0 0 0 0 0 0 0 0 0 0 0 0 0 0 0 0 0 0 0 0 0 0 0 0 0 0 0 0 0 0 0 0 0 0 0 0 0 0 3172 3172 3172 3172 3172 3172 3172 3172 3172 3172 3172 3172 3172 3172 3172 3143 3143 3143 3172 3172 3172 3172 3172 3172 3172 3172 3172 3172 3143 3143 3143 3143 3143 3172 3172 3172 3172 3172 3172 3172 3172 3143 3143 3143 3143 3143 3143 3143 3143 3143 3143 3143 3143 3143 3143 3143 3143 3143 3143 3172 3143 3172 3172 3172 3172 3172 3172 3143 3143 3143 3143 3143 3143 3143 3172 3172 3172 3172 3172 3172 3172 3172 3143 3143 3143 3143 3172 3172 3172 3172 3172 3172 3143 3143 3143 3143 3143 3143 3143 3143 3172 3172 3172 3172 3172 3172 3172 3172 3172 3172 3143 3143 3143 3143 3172 3143 3172 3172 3172 3172 3172 3172 3172 3172 3172 3172 3201 3201 3201 3201 3201 3201 3201 3231 3201 3201 3201 3201 3231 3201 3201 3201 3201 3231 3201 3201 3201 3201 3201 3172 3172 3172 3172 3201 3201 3201 3201 3231 3231 3231 3231 3231 3231 3231 3231 3231 3231 3262 3293 2082 2082 2069 2057 2057 2057 2045 2033 2033 2033 2033 2033 2021 2021 2021 2009 2009 2009 2009 1998 1998 1986 1986 1986 1986 1986 1986 1986 1986 1986 1975 1975 1975 1964 1964 1952 1952 1952 1952 1964 1952 1952 1952 1952 1952 1952 1964 1952 1952 1952 1952 1952 1952 1952 1952 1964 1975 1975 1975 1975 1975 1975 1964 1964 1964 1964 1952 1952 1964 1964 1964 1964 1964 1964 1964 1964 1964 1975 1975 1975 1975 1975 1975 1975 1986 1986 1986 1986 1998 1998 1998 2009 2009 2009 2009 2009 2009 2009 2009 2009 2021 2021 2033 2045 2057 2057 2069 2082 2082 2082 2095 2095 2095 2107 0 0 0 0 0 0 3201 3201 3201 3201 3201 3201 3201 3231 3231 3231 3231 3231 3231 3231 3231 3231 3231 3231 3231 3231 3231 3231 3201 3172 3172 3172 3172 3201 3201 3201 3201 3201 3201 3201 3201 3201 3201 3201 3201 3201 3201 3172 3172 3172 3172 3172 3201 3172 3172 3201 3201 3201 3201 3201 3201 3201 3201 3201 3201 3201 3201 3201 3201 3172 3172 3172 3172 3172 3172 3172 3201 3201 3201 3201 3201 3201 3201 3201 3201 3201 3201 3201 3201 3201 3201 3201 3201 3201 3201 3201 3201 3201 3201 3201 3201 3201 3201 3201 3201 3201 3201 3201 3201 3201 3201 3231 3231 3231 3231 3231 3231 3231 3231 3201 3201 3201 3201 3201 3201 3201 3201 3231 3231 3262 3231 3231 3231 3201 3201 3201 3201 3143 3172 3172 3172 3201 3201 3201 3201 3201 3201 3172 3172 3172 3172 3172 3201 3201 3201 3172 3172 3172 3172 3172 3172 3172 3172 3172 3172 3143 3143 3143 3143 3143 3115 3115 3143 3143 3143 3172 3172 3172 3172 3172 3172 3172 3143 3172 3172 3172 3172 3172 3172 3172 3201 3201 3172 3172 3172 3201 3143 3172 3172 3172 3172 3172 3172 3172 3201 3172 3201 3201 3231 3231 3231 3231 3231 3262 3231 3262 3201 3201 3231 3231 3231 3201 3201 3201 3231 3172 3201 3201 3201 3201 3201 3201 3201 3172 3172 3172 3172 3172 3172
    0 0 0 0 0 0 0 0 0 0 0 0 0 0 0 0 0 0 0 0 0 0 0 0 0 0 0 0 0 0 0 0 0 0 0 0 0 0 0 0 0 0 0 0 0 0 0 0 0 0 0 0 0 0 0 0 0 0 0 0 0 0 0 0 0 0 0 0 0 0 0 0 0 0 0 0 0 0 0 0 0 0 0 0 0 0 0 0 0 0 0 0 0 0 0 0 0 0 0 0 0 0 0 0 0 0 0 0 0 0 0 0 0 0 0 0 0 3172 3172 3172 3172 3172 3172 3172 3172 3172 3172 3172 3172 3172 3172 3172 3172 3172 3172 3172 3172 3172 3172 3172 3172 3172 3172 3172 3172 3172 3172 3172 3172 3172 3172 3172 3172 3172 3172 3172 3172 3172 3172 3143 3143 3143 3172 3172 3172 3172 3172 3143 3143 3143 3172 3143 3143 3172 3143 3143 3143 3143 3143 3172 3172 3172 3172 3172 3172 3172 3172 3143 3172 3172 3172 3172 3172 3172 3172 3172 3172 3172 3172 3172 3172 3172 3172 3172 3172 3172 3172 3172 3172 3172 3143 3143 3143 3143 3143 3143 3172 3172 3172 3172 3172 3172 3172 3172 3172 3172 3172 3143 3172 3172 3172 3172 3172 3172 3201 3201 3172 3201 3172 3172 3172 3201 3172 3201 3201 3201 3201 3201 3231 3201 3231 3231 3201 3201 3201 3231 3231 3201 3201 3201 3231 3231 3201 3201 3201 3231 3231 3231 3231 3201 3231 3231 3231 3231 3231 3231 3231 3231 3231 3231 3231 3231 3231 3231 3231 3231 3262 3262 3231 2069 2069 2057 2057 2045 2045 2045 2033 2033 2033 2033 2021 2021 2021 2021 2021 2009 2009 1998 2009 1986 1986 1986 1986 1986 1986 1986 1986 1986 1975 1975 1964 1964 1964 1964 1964 1964 1964 1964 1964 1964 1964 1964 1964 1964 1964 1964 1964 1952 1952 1941 1952 1952 1964 1964 2367 2367 1986 2367 1986 1975 1975 1975 1964 1964 1964 1964 1964 1964 1964 1964 1964 1964 1964 1964 1975 1975 1975 1975 1975 1975 1975 1986 1986 1986 1986 1998 1998 2009 2009 2009 2009 2009 2009 2009 2021 2021 2021 2021 2033 2045 2045 2057 2069 2082 2082 2095 2095 2095 2095 2107 0 0 0 0 0 0 3201 3201 3201 3201 3231 3231 3231 3231 3231 3231 3231 3231 3231 3231 3231 3231 3231 3262 3231 3231 3231 3231 3231 3201 3201 3172 3201 3201 3201 3201 3201 3201 3201 3201 3201 3201 3201 3201 3201 3201 3201 3201 3201 3201 3201 3201 3201 3201 3201 3201 3201 3201 3201 3201 3201 3201 3201 3201 3201 3201 3201 3201 3201 3201 3201 3201 3201 3172 3172 3172 3172 3201 3201 3201 3201 3201 3201 3231 3201 3201 3201 3201 3201 3201 3231 3201 3201 3201 3201 3201 3201 3201 3201 3201 3201 3201 3201 3201 3201 3201 3231 3231 3201 3201 3231 3231 3231 3262 3231 3231 3231 3231 3231 3231 3231 3201 3201 3201 3201 3201 3201 3201 3231 3262 3262 3231 3231 3231 3231 3231 3201 3201 3172 3172 3201 3201 3201 3201 3201 3201 3201 3201 3172 3172 3172 3172 3201 3201 3231 3231 3201 3201 3201 3172 3172 3172 3172 3172 3172 3172 3172 3143 3143 3143 3143 3115 3143 3143 3143 3172 3172 3172 3172 3172 3172 3172 3172 3172 3172 3172 3172 3172 3172 3172 3172 3201 3201 3201 3172 3201 3201 3172 3172 3172 3172 3172 3172 3172 3172 3201 3201 3201 3201 3231 3262 3231 3231 3262 3262 3262 3262 3231 3231 3231 3231 3231 3231 3231 3231 3231 3201 3201 3201 3201 3201 3201 3201 3201 3201 3201 3201 3172 3172 3172
    0 0 0 0 0 0 0 0 0 0 0 0 0 0 0 0 0 0 0 0 0 0 0 0 0 0 0 0 0 0 0 0 0 0 0 0 0 0 0 0 0 0 0 0 0 0 0 0 0 0 0 0 0 0 0 0 0 0 0 0 0 0 0 0 0 0 0 0 0 0 0 0 0 0 0 0 0 0 0 0 0 0 0 0 0 0 0 0 0 0 0 0 0 0 0 0 0 0 0 0 0 0 0 0 0 0 0 0 0 0 0 0 0 0 0 0 0 3172 3172 3172 3172 3172 3172 3172 3172 3201 3201 3172 3172 3172 3172 3172 3172 3172 3172 3172 3172 3172 3172 3172 3172 3172 3172 3172 3172 3172 3172 3172 3172 3172 3172 3172 3172 3172 3172 3172 3172 3172 3172 3172 3172 3143 3172 3172 3172 3172 3143 3143 3143 3143 3143 3172 3172 3172 3143 3143 3143 3143 3172 3172 3172 3172 3172 3172 3172 3172 3172 3172 3172 3172 3172 3172 3201 3201 3201 3201 3172 3172 3172 3172 3172 3172 3172 3172 3172 3172 3172 3201 3201 3201 3143 3172 3172 3172 3172 3172 3172 3172 3172 3172 3172 3172 3172 3172 3172 3201 3172 3172 3172 3172 3172 3172 3201 3201 3201 3201 3201 3201 3201 3201 3201 3201 3201 3201 3231 3201 3201 3231 3231 3231 3231 3231 3231 3231 3231 3231 3231 3231 3201 3201 3231 3231 3231 3201 3201 3231 3231 3201 3231 3231 3231 3231 3231 3231 3231 3231 3231 3231 3231 3231 3231 3231 3231 3231 3231 3262 3262 3293 3262 2082 2069 2069 2057 2045 2045 2045 2045 2045 2045 2033 2033 2033 2021 2021 2021 2021 2009 2009 2009 2009 1986 1986 1986 1986 1986 1986 1986 1986 1986 1975 1975 1975 1964 1964 1964 1964 1964 1964 1964 1964 1964 1964 1964 1964 1964 1964 1964 1964 1941 1941 1941 2351 2351 2351 2351 2351 2351 2351 1986 1986 1975 1975 1975 1964 1964 1964 1964 1964 1964 1964 1964 1975 1975 1975 1975 1975 1975 1975 1975 1975 1986 1986 1998 1998 1998 1998 2009 2009 2009 2009 2009 2021 2021 2021 2021 2021 2021 2033 2045 2057 2057 2069 2069 2082 2082 2095 2107 2107 2095 0 0 0 0 0 0 0 3231 3231 3231 3231 3231 3231 3231 3231 3231 3231 3231 3262 3262 3262 3231 3231 3262 3262 3231 3231 3231 3231 3231 3201 3201 3201 3201 3201 3201 3201 3201 3201 3201 3231 3231 3201 3201 3201 3201 3201 3201 3201 3201 3201 3201 3201 3201 3201 3201 3201 3201 3201 3201 3201 3201 3201 3201 3201 3201 3201 3201 3201 3201 3201 3201 3201 3201 3201 3201 3172 3201 3201 3201 3201 3201 3201 3231 3231 3231 3231 3231 3231 3201 3231 3231 3201 3201 3201 3201 3201 3201 3201 3201 3201 3201 3201 3201 3201 3201 3201 3231 3231 3231 3201 3231 3231 3231 3231 3231 3231 3231 3231 3231 3231 3231 3201 3201 3201 3201 3201 3231 3201 3231 3262 3262 3262 3262 3262 3231 3262 3231 3201 3172 3201 3201 3201 3201 3201 3201 3201 3201 3172 3172 3172 3201 3201 3201 3231 3262 3262 3231 3201 3201 3201 3172 3172 3172 3172 3172 3201 3172 3143 3143 3143 3143 3143 3143 3143 3143 3172 3172 3143 3172 3172 3172 3172 3172 3172 3172 3172 3172 3172 3172 3172 3201 3201 3201 3172 3172 3201 3201 3172 3172 3172 3201 3201 3201 3201 3201 3201 3201 3201 3201 3231 3262 3262 3262 3262 3262 3231 3231 3231 3231 3231 3231 3231 3231 3231 3231 3231 3231 3201 3201 3201 3172 3201 3201 3201 3201 3201 3201 3201 3172 3172
    0 0 0 0 0 0 0 0 0 0 0 0 0 0 0 0 0 0 0 0 0 0 0 0 0 0 0 0 0 0 0 0 0 0 0 0 0 0 0 0 0 0 0 0 0 0 0 0 0 0 0 0 0 0 0 0 0 0 0 0 0 0 0 0 0 0 0 0 0 0 0 0 0 0 0 0 0 0 0 0 0 0 0 0 0 0 0 0 0 0 0 0 0 0 0 0 0 0 0 0 0 0 0 0 0 0 0 0 0 0 0 0 0 0 0 0 0 3172 3172 3201 3172 3201 3201 3201 3201 3201 3201 3201 3172 3172 3172 3172 3172 3172 3172 3172 3172 3172 3172 3172 3172 3172 3172 3172 3172 3172 3172 3172 3172 3172 3201 3172 3172 3172 3172 3172 3172 3172 3172 3172 3172 3172 3172 3143 3172 3172 3143 3143 3172 3172 3172 3172 3172 3172 3172 3172 3143 3172 3172 3172 3172 3172 3172 3172 3172 3172 3172 3172 3201 3201 3201 3201 3201 3201 3201 3201 3201 3201 3201 3172 3172 3172 3172 3172 3172 3172 3201 3201 3201 3201 3172 3172 3201 3172 3172 3172 3172 3172 3172 3172 3172 3201 3201 3201 3201 3201 3201 3201 3172 3201 3201 3201 3231 3201 3231 3231 3201 3231 3201 3201 3201 3231 3201 3231 3231 3231 3231 3231 3231 3231 3231 3231 3231 3231 3231 3231 3231 3231 3231 3231 3231 3231 3231 3231 3231 3231 3231 3231 3231 3231 3231 3231 3231 3231 3231 3231 3231 3231 3231 3231 3231 3262 3231 3262 3262 3262 3262 3262 3262 2082 2082 2069 2069 2057 2045 2057 2045 2045 2033 2033 2033 2033 2021 2021 2021 2021 2021 2009 2009 2009 1998 1986 1986 1986 1986 1986 1986 1986 1986 1986 1975 1975 1964 1964 1964 1964 1964 1964 1964 1964 1964 1964 1964 1975 1975 1975 1964 1975 2304 2304 2320 2335 2335 2351 2351 2351 2351 2351 2351 1998 1986 1986 1975 1975 1964 1964 1964 1964 1964 1964 1975 1975 1975 1975 1975 1975 1975 1986 1975 1986 1986 1986 1998 1998 1998 2009 2009 2009 2021 2021 2021 2021 2021 2033 2033 2033 2033 2045 2045 2057 2069 2069 2069 2082 2082 2095 2107 2107 0 0 0 0 0 0 0 3262 3231 3231 3231 3231 3231 3231 3262 3262 3262 3262 3262 3262 3262 3262 3262 3262 3262 3262 3262 3262 3231 3231 3231 3201 3201 3201 3201 3201 3201 3201 3201 3231 3231 3231 3231 3231 3231 3201 3231 3201 3201 3201 3201 3201 3201 3201 3201 3201 3201 3201 3201 3201 3231 3231 3231 3231 3231 3231 3231 3231 3201 3231 3201 3201 3201 3201 3201 3201 3201 3172 3201 3201 3201 3201 3201 3231 3231 3262 3262 3262 3231 3231 3231 3231 3231 3201 3231 3231 3231 3231 3231 3201 3201 3231 3231 3231 3231 3231 3231 3231 3231 3231 3231 3231 3231 3231 3231 3231 3231 3231 3231 3231 3231 3231 3231 3231 3201 3231 3231 3231 3231 3231 3231 3262 3262 3262 3262 3262 3262 3262 3231 3231 3201 3201 3231 3231 3231 3231 3231 3201 3201 3201 3201 3201 3201 3201 3231 3231 3262 3262 3231 3231 3231 3231 3201 3201 3172 3201 3201 3201 3201 3172 3172 3172 3172 3143 3143 3143 3143 3172 3172 3172 3172 3172 3172 3201 3172 3172 3172 3172 3201 3172 3172 3172 3201 3231 3201 3172 3172 3201 3201 3172 3172 3172 3201 3201 3201 3201 3201 3201 3201 3201 3231 3231 3262 3262 3262 3262 3262 3262 3231 3231 3231 3231 3231 3231 3231 3262 3262 3262 3231 3231 3201 3201 3172 3201 3201 3201 3201 3201 3201 3201 3172 3172
    0 0 0 0 0 0 0 0 0 0 0 0 0 0 0 0 0 0 0 0 0 0 0 0 0 0 0 0 0 0 0 0 0 0 0 0 0 0 0 0 0 0 0 0 0 0 0 0 0 0 0 0 0 0 0 0 0 0 0 0 0 0 0 0 0 0 0 0 0 0 0 0 0 0 0 0 0 0 0 0 0 0 0 0 0 0 0 0 0 0 0 0 0 0 0 0 0 0 0 0 0 0 0 0 0 0 0 0 0 0 0 0 0 0 0 0 0 0 3201 3201 3201 3201 3231 3231 3231 3231 3231 3201 3201 3172 3172 3172 3172 3172 3172 3172 3172 3172 3172 3172 3172 3172 3172 3172 3172 3172 3172 3172 3201 3172 3201 3201 3201 3172 3172 3172 3172 3172 3172 3172 3172 3172 3172 3143 3172 3143 3143 3172 3172 3172 3172 3172 3172 3201 3172 3172 3172 3172 3172 3172 3172 3172 3172 3172 3201 3172 3201 3201 3201 3201 3201 3201 3201 3201 3231 3201 3201 3201 3201 3201 3201 3172 3201 3201 3201 3201 3201 3201 3231 3231 3172 3201 3201 3172 3172 3172 3172 3172 3201 3172 3201 3201 3201 3201 3201 3231 3231 3231 3201 3201 3201 3201 3231 3231 3231 3231 3231 3231 3231 3231 3231 3231 3231 3231 3231 3231 3231 3231 3231 3231 3231 3231 3231 3231 3231 3231 3231 3231 3231 3231 3231 3231 3231 3231 3231 3231 3231 3231 3231 3231 3231 3231 3231 3231 3231 3262 3262 3262 3262 3231 3262 3262 3262 3262 3262 3262 3293 3293 3293 3262 2082 2069 2069 2057 2057 2057 2057 2045 2057 2045 2033 2033 2033 2033 2033 2021 2021 2021 2021 2021 1998 1998 1986 1986 1986 1986 1986 1986 1986 1986 1975 1975 1975 1975 1964 1964 1964 1975 1975 1964 1975 1975 1975 1975 1986 1986 1975 1975 2320 2320 2320 2335 2335 2351 2351 2351 2351 2351 2351 2351 2351 1986 1975 1975 1964 1964 1964 1964 1964 1964 1975 1975 1975 1975 1975 1975 1975 1986 1986 1998 1998 1998 1998 1998 2009 2009 2009 2021 2021 2021 2021 2033 2033 2033 2033 2045 2045 2045 2057 2057 2069 2069 2082 2082 2095 2107 2107 2107 0 0 0 0 0 0 3262 3262 3262 3262 3262 3262 3262 3262 3262 3262 3262 3262 3262 3262 3293 3293 3262 3262 3262 3293 3262 3262 3262 3262 3262 3201 3201 3201 3201 3201 3231 3231 3231 3231 3231 3262 3262 3262 3231 3231 3231 3231 3231 3231 3231 3201 3231 3231 3231 3201 3201 3201 3201 3201 3231 3231 3231 3231 3262 3231 3231 3231 3231 3231 3201 3201 3201 3201 3201 3201 3201 3172 3201 3201 3201 3231 3231 3231 3262 3262 3262 3262 3262 3231 3231 3231 3262 3231 3231 3231 3231 3231 3231 3231 3231 3231 3231 3231 3231 3231 3231 3231 3231 3231 3231 3231 3231 3231 3231 3262 3262 3231 3231 3262 3262 3262 3262 3262 3231 3262 3262 3231 3231 3231 3262 3262 3262 3262 3262 3262 3262 3262 3231 3231 3201 3201 3231 3231 3231 3231 3231 3231 3231 3201 3201 3201 3201 3231 3231 3231 3262 3262 3262 3262 3262 3262 3231 3231 3231 3231 3231 3231 3231 3201 3201 3201 3201 3172 3143 3143 3143 3172 3172 3172 3172 3201 3201 3231 3201 3231 3201 3201 3201 3201 3201 3201 3231 3231 3231 3201 3201 3201 3201 3201 3201 3172 3201 3231 3201 3201 3201 3201 3231 3231 3231 3231 3262 3262 3262 3262 3262 3262 3262 3262 3231 3262 3262 3262 3262 3262 3262 3262 3231 3231 3201 3201 3201 3201 3201 3172 3201 3201 3201 3201 3201 3172
    0 0 0 0 0 0 0 0 0 0 0 0 0 0 0 0 0 0 0 0 0 0 0 0 0 0 0 0 0 0 0 0 0 0 0 0 0 0 0 0 0 0 0 0 0 0 0 0 0 0 0 0 0 0 0 0 0 0 0 0 0 0 0 0 0 0 0 0 0 0 0 0 0 0 0 0 0 0 0 0 0 0 0 0 0 0 0 0 0 0 0 0 0 0 0 0 0 0 0 0 0 0 0 0 0 0 0 0 0 0 0 0 0 0 0 0 0 0 3231 3231 3231 3231 3231 3231 3231 3231 3231 3231 3201 3201 3201 3201 3201 3172 3172 3172 3172 3172 3201 3172 3172 3172 3172 3172 3172 3172 3172 3201 3201 3172 3201 3201 3201 3231 3231 3231 3231 3172 3201 3201 3172 3172 3172 3143 3143 3143 3143 3172 3172 3172 3172 3201 3201 3172 3172 3172 3172 3172 3172 3172 3172 3172 3172 3172 3172 3172 3201 3201 3201 3201 3201 3201 3201 3201 3201 3201 3201 3201 3201 3201 3201 3201 3201 3231 3231 3231 3231 3231 3231 3231 3201 3201 3201 3201 3201 3231 3231 3231 3201 3201 3201 3231 3231 3231 3201 3231 3231 3231 3201 3231 3231 3231 3231 3231 3231 3231 3231 3231 3231 3231 3231 3231 3231 3231 3231 3231 3231 3231 3231 3231 3231 3231 3231 3231 3262 3262 3231 3262 3231 3262 3262 3262 3231 3231 3231 3262 3262 3231 3262 3231 3262 3262 3262 3262 3262 3262 3262 3262 3262 3262 3262 3262 3262 3262 3262 3262 3293 3324 3262 3262 2082 2069 2069 2069 2069 2069 2069 2057 2057 2057 2057 2057 2033 2033 2033 2033 2021 2021 2021 2021 2021 2021 1998 1998 1998 1998 1998 1986 1986 1986 1975 1975 1975 1975 1975 1975 1975 1975 1975 1975 1975 1975 1975 1986 2335 2335 2335 2335 2335 2335 2335 2351 2351 2351 2351 2351 2351 2351 2351 2351 2351 2351 2351 1975 1975 1975 1975 1975 1975 1975 1975 1975 1975 1975 1986 1986 1986 1998 1998 1998 2009 2009 2009 2009 2009 2021 2021 2021 2021 2033 2033 2033 2033 2045 2045 2045 2057 2057 2069 2069 2082 2082 2082 2095 2095 2107 2107 0 0 0 0 0 0 3293 3293 3293 3293 3293 3293 3293 3262 3262 3262 3293 3293 3262 3293 3293 3293 3293 3293 3293 3293 3293 3262 3262 3262 3262 3262 3201 3201 3201 3231 3231 3231 3231 3231 3262 3262 3262 3262 3262 3231 3231 3262 3231 3262 3262 3262 3231 3262 3262 3231 3231 3201 3231 3201 3231 3231 3262 3262 3262 3262 3262 3262 3231 3231 3231 3231 3231 3201 3201 3201 3201 3201 3201 3201 3201 3201 3231 3231 3231 3262 3293 3293 3262 3262 3262 3231 3262 3262 3231 3231 3262 3231 3262 3231 3231 3231 3262 3262 3231 3231 3231 3262 3262 3262 3231 3231 3231 3262 3262 3262 3262 3262 3262 3262 3262 3293 3262 3293 3293 3262 3293 3293 3262 3262 3262 3262 3293 3293 3293 3262 3262 3262 3262 3262 3231 3201 3201 3231 3231 3231 3231 3262 3231 3231 3231 3231 3231 3201 3231 3231 3262 3262 3262 3262 3262 3293 3293 3262 3262 3262 3262 3262 3262 3231 3231 3231 3201 3201 3172 3172 3143 3143 3172 3172 3172 3172 3201 3201 3231 3231 3231 3201 3201 3201 3201 3201 3201 3231 3231 3262 3231 3201 3231 3231 3231 3201 3201 3201 3231 3231 3231 3231 3231 3231 3231 3231 3262 3262 3262 3262 3262 3262 3262 3262 3262 3262 3262 3262 3262 3262 3262 3262 3262 3262 3231 3201 3201 3201 3201 3201 3201 3201 3231 3231 3231 3201 3172</data></dframe>
</opencv_storage>
