<?xml version="1.0"?>
<opencv_storage>
<dframe type_id="opencv-matrix">
  <rows>35</rows>
  <cols>640</cols>
  <dt>w</dt>
  <data>
    0 0 0 0 0 0 0 0 0 0 0 0 0 0 0 0 0 0 0 0 0 0 0 0 0 0 0 0 0 0 0 0 0 0 0 0 0 0 0 0 0 0 0 0 0 0 0 0 0 0 0 0 0 0 0 0 0 0 0 0 0 0 0 0 0 0 0 0 0 0 0 0 0 0 0 0 0 0 0 0 0 0 0 0 0 0 0 0 0 0 0 0 0 0 0 0 0 0 0 2259 2259 2259 2259 2259 2259 2259 2259 2274 2274 2274 2289 2289 2304 2320 2335 0 0 0 0 0 0 3640 3679 3679 3679 3679 3679 3679 3679 3679 3679 3679 3679 3679 3679 3679 3679 3679 3679 3679 3679 3679 3679 3679 3679 3679 3679 3679 3679 3679 3679 3679 3679 3679 3679 3679 3679 3679 3679 3679 3679 3679 3718 3679 3718 3718 3679 3679 3679 3718 3718 3718 3718 3718 3718 3718 3718 3718 3718 3718 3718 3718 3718 3718 3718 3718 3718 3718 3718 3718 3718 3718 3718 3718 3718 3718 3718 3718 3718 3718 3718 3718 3718 3718 3718 3759 3800 3800 3842 3800 3842 3842 3842 3800 3800 3759 3759 3759 3718 3679 3679 3679 3718 3718 3759 3759 3759 3759 3759 3759 3759 3759 3759 3800 3800 3800 3800 3800 3800 3800 3800 3800 3800 3800 3800 3800 3800 3800 3800 3842 3842 3842 3842 3800 3800 3800 3800 3800 3800 3800 3842 3842 3842 3842 3842 3842 3842 3842 3842 3842 3842 3842 3842 3842 3885 3885 3885 3930 3885 3885 3885 3885 3842 3842 3842 3842 3842 3885 3885 3885 3885 3885 3930 3930 3930 3885 3885 3885 3885 3930 3930 3930 3930 3930 3930 3930 3930 3930 3930 3930 3930 3930 3930 3930 3930 3930 3930 3930 3930 3930 3885 3885 3930 3930 3930 3930 3930 3930 3975 3975 3975 636 636 636 636 637 638 639 639 641 641 642 643 643 644 644 644 645 645 645 645 647 648 650 649 650 651 653 654 655 655 655 655 656 658 658 659 659 659 660 660 661 663 661 663 664 665 665 667 3930 3930 3975 3975 3975 3975 3975 4021 0 0 0 0 0 0 0 0 0 0 0 0 0 0 0 0 0 0 0 0 0 0 0 0 0 0 0 0 0 0 0 0 0 0 0 0 3885 3885 3930 3930 3930 3930 3930 3930 3930 3930 3930 3930 3930 3930 3930 3930 3930 3930 3930 3930 3930 3930 3930 3930 3930 3930 3885 3885 3885 3885 3885 3885 3885 3885 3930 3930 3930 3930 3930 3930 3930 3930 3930 3885 3885 3885 3885 3885 3885 3885 3885 3885 3885 3885 3885 3930 3930 3930 3930 3930 3930 3975 3930 3930 3930 3975 3930 3930 3930 3930 3975 3975 3975 3930 3930 3930 3930 3930 3930 3930 3930 3930 3930 3930 3975 3930 3930 3930 3930 3930 3930 3930 3930 3930 3930 3930 3930 3930 3930 3930 3885 3885 3930 3930 3930 3930 3930 3930 3885 3885 3885 3842 3885 3885 3885 3885 3885 3885 3885 3885 3885 3885 3885 3885 3885 3885 3930 3930 3975 3975 3975 3975 3975 3975 3975 3975 3930 3930 3930 3930 3930 3930 3930 3930 3975 3975 3930 3930 3930 3930 3885 3885 3885 3842 3842 3842 3842 3842 3842 3842 3842 3800 3800 3842 3800 3759 3759 3759 3759 3759 3718 3718 3718 3718 3640 3565 3565 3565 3565 3528 3528 3528 3528 3528 3528 3528 3493 3493 3493 3458 3458 3423 3458 3423 3423 3423 3390 3390 3357 3357 3357 3293 3262 3262 3231 3231 3231 3231 3231 3231 3231 3201 3201 3201 3201 3172 3201
    0 0 0 0 0 0 0 0 0 0 0 0 0 0 0 0 0 0 0 0 0 0 0 0 0 0 0 0 0 0 0 0 0 0 0 0 0 0 0 0 0 0 0 0 0 0 0 0 0 0 0 0 0 0 0 0 0 0 0 0 0 0 0 0 0 0 0 0 0 0 0 0 0 0 0 0 0 0 0 0 0 0 0 0 0 0 0 0 0 0 0 0 0 0 0 0 0 0 0 2259 2259 2259 2259 2259 2259 2259 2259 2259 2274 2274 2274 2289 2289 2304 2320 2320 0 0 0 0 0 3640 3679 3679 3679 3679 3679 3679 3679 3679 3679 3679 3679 3679 3679 3679 3679 3679 3679 3679 3679 3679 3679 3679 3679 3679 3679 3679 3679 3679 3679 3679 3679 3679 3679 3679 3679 3679 3679 3679 3679 3679 3679 3679 3679 3679 3679 3679 3679 3718 3718 3718 3718 3718 3718 3718 3718 3718 3679 3679 3679 3718 3718 3718 3718 3679 3718 3718 3718 3718 3718 3718 3718 3718 3718 3718 3718 3718 3759 3718 3718 3718 3718 3718 3759 3759 3800 3800 3842 3800 3842 3842 3842 3842 3800 3800 3759 3759 3718 3679 3679 3679 3718 3718 3718 3718 3718 3759 3759 3759 3759 3759 3800 3800 3800 3800 3800 3800 3800 3800 3800 3800 3800 3800 3800 3800 3800 3800 3800 3842 3842 3842 3800 3800 3800 3842 3800 3800 3800 3800 3842 3842 3842 3842 3842 3842 3842 3842 3842 3842 3842 3842 3842 3842 3885 3885 3930 3930 3885 3885 3842 3885 3842 3842 3842 3842 3842 3885 3885 3885 3885 3885 3930 3930 3930 3885 3885 3885 3885 3930 3885 3930 3930 3930 3930 3930 3930 3930 3930 3930 3930 3930 3930 3930 3930 3930 3930 3930 3975 3975 3930 3930 3930 3930 3930 3930 3930 3930 3975 3975 3975 636 636 636 636 637 638 639 639 641 641 641 642 643 643 644 644 644 644 645 645 647 647 648 649 650 651 653 654 654 655 655 655 656 658 658 658 659 659 659 660 661 661 663 663 664 664 665 665 667 667 667 669 669 669 669 670 669 670 0 0 0 0 0 0 0 0 0 0 0 0 0 0 0 0 0 0 0 0 0 0 0 0 0 0 0 0 0 0 0 0 0 0 0 3885 3930 3930 3930 3930 3930 3930 3930 3930 3930 3930 3930 3930 3930 3930 3930 3930 3930 3930 3930 3930 3930 3930 3930 3930 3930 3930 3885 3885 3885 3930 3930 3930 3930 3930 3930 3930 3930 3930 3930 3930 3930 3885 3885 3885 3885 3885 3885 3885 3885 3885 3885 3930 3930 3930 3930 3930 3930 3975 3975 3975 3975 3930 3930 3930 3930 3930 3930 3930 3975 3975 3975 3975 3930 3930 3930 3930 3930 3930 3930 3930 3930 3930 3975 3930 3930 3930 3930 3930 3930 3930 3930 3930 3930 3930 3930 3975 3975 3975 3930 3930 3930 3975 3930 3930 3930 3930 3885 3885 3930 3885 3885 3885 3885 3885 3885 3885 3885 3885 3885 3885 3930 3930 3930 3930 3930 3975 3975 3975 4021 3975 3975 3975 3975 3975 3975 3975 3930 3975 3975 3975 3975 3930 3975 3975 3930 3930 3930 3930 3885 3885 3885 3885 3842 3842 3842 3842 3842 3842 3800 3800 3800 3800 3800 3759 3759 3759 3800 3759 3718 3718 3718 3718 3640 3565 3565 3565 3565 3528 3528 3528 3528 3528 3528 3528 3493 3458 3493 3458 3458 3423 3423 3423 3423 3423 3423 3390 3390 3390 3357 3324 3293 3262 3231 3231 3231 3231 3231 3231 3231 3201 3201 3201 3201 3172 3201
    0 0 0 0 0 0 0 0 0 0 0 0 0 0 0 0 0 0 0 0 0 0 0 0 0 0 0 0 0 0 0 0 0 0 0 0 0 0 0 0 0 0 0 0 0 0 0 0 0 0 0 0 0 0 0 0 0 0 0 0 0 0 0 0 0 0 0 0 0 0 0 0 0 0 0 0 0 0 0 0 0 0 0 0 0 0 0 0 0 0 0 0 0 0 0 0 0 0 0 2244 2259 2259 2259 2259 2259 2259 2259 2259 2259 2274 2274 2274 2289 2304 2320 2320 0 0 0 0 0 3640 3640 3679 3679 3679 3679 3679 3679 3679 3679 3679 3679 3679 3679 3679 3679 3679 3679 3679 3679 3679 3679 3679 3679 3679 3679 3679 3679 3679 3679 3679 3679 3679 3679 3679 3679 3679 3679 3679 3679 3679 3679 3679 3679 3679 3679 3679 3679 3718 3718 3718 3718 3679 3679 3679 3718 3679 3679 3679 3679 3718 3718 3718 3679 3679 3718 3718 3718 3718 3718 3718 3718 3718 3718 3718 3759 3759 3759 3718 3718 3759 3718 3718 3759 3759 3759 3800 3800 3759 3800 3800 3800 3800 3800 3800 3759 3800 3718 3718 3718 3718 3718 3718 3759 3718 3718 3718 3759 3759 3759 3800 3800 3800 3800 3800 3800 3800 3800 3800 3800 3800 3800 3800 3800 3800 3800 3800 3800 3800 3800 3800 3800 3800 3800 3800 3800 3800 3800 3800 3800 3842 3842 3842 3842 3842 3842 3842 3842 3842 3842 3842 3842 3842 3842 3885 3885 3885 3885 3842 3842 3842 3842 3842 3842 3842 3842 3885 3885 3885 3930 3885 3930 3930 3930 3885 3885 3885 3885 3930 3885 3930 3930 3930 3930 3930 3930 3885 3930 3885 3885 3885 3930 3930 3930 3930 3930 3930 3975 3975 3930 3930 3930 3930 3930 3930 3930 3930 3975 3975 3975 636 636 636 636 637 637 638 639 641 641 641 642 642 643 643 644 644 644 644 645 645 647 648 649 650 651 653 654 654 655 655 655 656 656 658 658 659 659 659 660 660 661 661 663 663 664 664 665 665 665 667 669 669 669 669 670 670 670 670 0 0 0 0 0 0 0 0 0 0 0 0 0 0 0 0 0 0 0 0 0 0 0 0 0 0 0 0 0 0 0 0 0 0 0 0 0 0 0 0 0 3930 3930 3930 3930 3975 3885 3930 3975 3930 3930 3975 3930 3930 3930 3930 3930 3930 3930 3930 3930 3930 3930 3930 3930 3930 3930 3930 3930 3930 3930 3930 3930 3930 3930 3930 3930 3930 3885 3930 3885 3885 3885 3885 3885 3885 3930 3930 3930 3930 3930 3975 3975 3975 3975 3975 3930 3930 3975 3930 3930 3930 3975 3975 4021 3975 3975 3930 3930 3930 3930 3930 3930 3930 3930 3975 3975 3975 3930 3975 3930 3930 3930 3930 3930 3930 3930 3930 3930 3975 3975 3975 3975 3930 3930 3930 3930 3930 3930 3930 3930 3930 3930 3930 3885 3885 3885 3930 3885 3885 3885 3885 3885 3885 3930 3930 3930 3975 3975 3975 3975 4021 4021 4021 4021 4021 4021 3975 3975 3975 3975 3930 3975 3930 3975 3975 3930 3930 3930 3930 3930 3930 3885 3885 3885 3885 3885 3885 3842 3842 3842 3842 3842 3842 3800 3800 3800 3759 3759 3759 3759 3718 3718 3718 3718 3679 3679 3640 3565 3565 3565 3565 3528 3528 3528 3528 3528 3528 3493 3458 3458 3458 3458 3423 3423 3423 3458 3458 3423 3390 3390 3390 3390 3390 3324 3324 3262 3262 3231 3231 3231 3231 3201 3231 3201 3201 3201 3201 3172 3201
    0 0 0 0 0 0 0 0 0 0 0 0 0 0 0 0 0 0 0 0 0 0 0 0 0 0 0 0 0 0 0 0 0 0 0 0 0 0 0 0 0 0 0 0 0 0 0 0 0 0 0 0 0 0 0 0 0 0 0 0 0 0 0 0 0 0 0 0 0 0 0 0 0 0 0 0 0 0 0 0 0 0 0 0 0 0 0 0 0 0 0 0 0 0 0 0 0 0 2244 2244 2244 2244 2244 2259 2259 2259 2259 2259 2259 2274 2274 2274 2289 2304 2320 2320 2320 0 0 0 0 3602 3640 3679 3679 3679 3679 3679 3679 3679 3679 3679 3679 3679 3679 3679 3679 3679 3679 3679 3679 3679 3679 3679 3679 3679 3679 3679 3679 3679 3679 3679 3679 3679 3679 3679 3679 3679 3679 3679 3679 3679 3679 3679 3679 3679 3679 3679 3679 3679 3679 3718 3679 3679 3679 3679 3679 3679 3679 3679 3679 3718 3718 3718 3679 3679 3718 3718 3718 3718 3718 3718 3718 3718 3718 3718 3759 3759 3759 3718 3718 3718 3718 3718 3718 3718 3759 3759 3800 3759 3800 3800 3800 3800 3800 3800 3800 3800 3759 3759 3718 3718 3718 3718 3759 3718 3718 3759 3759 3759 3759 3800 3800 3800 3800 3800 3800 3800 3800 3800 3800 3800 3800 3800 3800 3800 3800 3800 3800 3800 3800 3800 3800 3800 3800 3800 3800 3800 3800 3800 3842 3842 3842 3842 3842 3842 3842 3842 3842 3842 3842 3842 3842 3842 3842 3842 3885 3885 3885 3842 3842 3842 3842 3842 3842 3842 3842 3885 3885 3885 3930 3885 3885 3885 3885 3885 3885 3885 3885 3885 3885 3930 3930 3930 3930 3930 3930 3885 3930 3885 3885 3885 3930 3930 3930 3930 3930 3930 3975 3975 3930 3930 3930 3930 3930 3930 3930 3930 3975 3975 3975 636 636 636 636 637 637 638 639 641 641 641 642 641 642 642 643 643 643 643 644 644 645 647 648 649 650 653 654 654 654 654 654 655 655 656 656 658 659 659 660 660 660 660 661 661 663 664 664 665 665 667 669 669 669 669 670 669 670 670 670 670 674 674 0 0 0 0 0 0 0 0 0 0 0 0 0 0 0 0 0 0 0 0 0 0 0 0 0 0 0 0 0 0 0 0 0 0 0 0 0 0 0 0 0 0 0 0 3975 3930 3930 3975 3930 3930 3930 3930 3930 3930 3930 3930 3930 3930 3930 3930 3930 3930 3930 3930 3930 3930 3930 3930 3930 3930 3975 3930 3930 3930 3930 3930 3930 3930 3930 3930 3930 3930 3930 3930 3930 3930 3975 3975 3975 3975 4021 3975 3930 3930 3975 3930 3930 3975 3975 3975 4021 3975 3975 3930 3930 3930 3930 3930 3930 3930 3930 3975 3975 3975 3975 3975 3975 3975 3930 3930 3930 3975 3975 3975 3975 3975 3975 3975 3975 3930 3930 3930 3930 3930 3930 3930 3885 3930 3930 3930 3930 3885 3930 3930 3930 3930 3885 3930 3885 3930 3930 3930 3930 3975 3975 3975 3975 4021 4021 4021 4021 3975 3975 3975 3975 3975 3975 3930 3975 3975 3975 3975 3930 3930 3930 3930 3930 3930 3885 3885 3885 3885 3885 3885 3842 3842 3842 3842 3842 3842 3800 3759 3800 3759 3759 3718 3718 3718 3718 3679 3679 3679 3679 3640 3602 3602 3565 3565 3565 3528 3528 3528 3528 3493 3493 3458 3458 3458 3458 3458 3423 3458 3458 3458 3423 3390 3390 3390 3357 3357 3324 3324 3293 3262 3231 3231 3231 3231 3201 3201 3201 3201 3201 3201 3172 3201
    0 0 0 0 0 0 0 0 0 0 0 0 0 0 0 0 0 0 0 0 0 0 0 0 0 0 0 0 0 0 0 0 0 0 0 0 0 0 0 0 0 0 0 0 0 0 0 0 0 0 0 0 0 0 0 0 0 0 0 0 0 0 0 0 0 0 0 0 0 0 0 0 0 0 0 0 0 0 0 0 0 0 0 0 0 0 0 0 0 0 0 0 0 0 0 0 0 0 2244 2244 2244 2244 2244 2259 2259 2259 2259 2259 2259 2274 2274 2274 2289 2304 2320 2320 2335 0 0 0 0 3602 3640 3679 3679 3679 3679 3679 3679 3679 3679 3679 3679 3640 3679 3679 3679 3679 3679 3679 3679 3679 3679 3679 3679 3679 3679 3679 3679 3679 3679 3679 3679 3679 3679 3679 3679 3640 3640 3640 3640 3679 3679 3679 3679 3679 3679 3679 3679 3679 3679 3679 3679 3679 3679 3679 3679 3679 3679 3679 3679 3679 3679 3679 3679 3679 3718 3718 3718 3718 3718 3718 3718 3759 3718 3759 3759 3759 3759 3718 3718 3718 3718 3718 3718 3718 3718 3759 3759 3759 3759 3800 3800 3800 3800 3800 3800 3842 3759 3759 3718 3718 3718 3718 3759 3718 3718 3718 3759 3759 3759 3759 3759 3800 3800 3800 3800 3800 3800 3800 3800 3800 3800 3800 3800 3759 3759 3800 3800 3800 3800 3800 3800 3800 3800 3800 3800 3800 3800 3800 3842 3842 3842 3842 3842 3842 3842 3842 3842 3842 3842 3842 3842 3842 3842 3842 3842 3842 3842 3842 3842 3842 3842 3842 3842 3842 3842 3885 3885 3885 3885 3885 3885 3885 3885 3885 3885 3885 3885 3885 3885 3885 3885 3885 3885 3885 3885 3885 3885 3885 3885 3885 3885 3930 3930 3930 3930 3975 3975 3975 3930 3930 3930 3930 3930 3930 3930 3930 3975 3975 3975 636 636 636 636 637 637 638 639 639 639 639 641 641 641 642 642 644 644 644 643 644 644 645 647 648 649 653 653 654 654 654 654 655 655 655 656 655 658 659 659 660 660 660 661 661 661 663 664 665 665 667 668 668 669 669 669 669 669 670 672 672 672 673 673 0 0 0 0 0 0 0 0 0 0 0 0 0 0 0 0 0 0 0 0 0 0 0 0 0 0 0 0 0 0 0 0 0 0 0 0 0 0 0 0 0 0 0 0 0 0 4021 3975 3975 3975 3930 3930 3930 3930 3930 3930 3930 3975 3975 3975 3975 3975 3975 3930 3975 3930 3975 3930 3930 3975 3930 3930 3930 3930 3975 3975 3975 3930 3930 3930 3930 3930 3930 3975 3975 3975 4021 4021 4021 3975 3975 3930 3975 3975 3930 3930 3975 3975 4021 4021 3975 3975 3975 3975 3930 3930 3930 3930 3930 3930 3975 3975 3975 3975 3975 3975 3975 3975 3975 3975 3975 3975 3975 3975 4021 4021 3975 3975 3930 3930 3930 3930 3930 3930 3885 3885 3930 3930 3930 3930 3930 3930 3930 3975 3975 3930 3930 3885 3930 3930 3930 3930 3975 3975 3975 4021 4021 4021 4021 4021 3975 3975 3975 3975 3975 3930 3930 3930 3930 3975 3930 3930 3930 3930 3930 3930 3930 3885 3885 3885 3885 3885 3842 3842 3842 3842 3842 3842 3842 3800 3800 3800 3759 3759 3718 3718 3679 3679 3679 3679 3679 3679 3640 3602 3602 3565 3565 3565 3528 3528 3528 3528 3493 3493 3423 3423 3423 3423 3423 3423 3423 3423 3423 3423 3390 3390 3390 3357 3357 3324 3324 3293 3262 3231 3231 3231 3231 3201 3201 3201 3201 3201 3201 3172 3172
    0 0 0 0 0 0 0 0 0 0 0 0 0 0 0 0 0 0 0 0 0 0 0 0 0 0 0 0 0 0 0 0 0 0 0 0 0 0 0 0 0 0 0 0 0 0 0 0 0 0 0 0 0 0 0 0 0 0 0 0 0 0 0 0 0 0 0 0 0 0 0 0 0 0 0 0 0 0 0 0 0 0 0 0 0 0 0 0 0 0 0 0 0 0 0 0 0 0 2244 2244 2230 2244 2244 2244 2259 2259 2259 2259 2259 2274 2274 2289 2289 2304 2320 2320 2320 0 0 0 0 0 3640 3679 3679 3679 3679 3679 3679 3679 3679 3679 3640 3640 3640 3679 3679 3679 3679 3679 3679 3679 3679 3679 3679 3679 3679 3679 3679 3679 3679 3679 3679 3679 3679 3640 3640 3640 3640 3640 3640 3640 3679 3679 3679 3679 3679 3679 3679 3679 3679 3679 3679 3679 3679 3679 3679 3679 3679 3679 3679 3679 3679 3679 3679 3679 3718 3718 3718 3718 3718 3718 3718 3718 3718 3759 3759 3759 3759 3718 3718 3718 3718 3679 3718 3718 3718 3759 3759 3759 3759 3759 3800 3800 3800 3800 3800 3800 3759 3759 3718 3718 3718 3718 3759 3718 3718 3718 3759 3759 3759 3759 3759 3759 3759 3800 3800 3800 3800 3800 3800 3800 3800 3800 3800 3800 3800 3800 3800 3800 3800 3800 3800 3800 3800 3800 3800 3800 3800 3800 3842 3842 3842 3842 3842 3842 3842 3842 3842 3842 3842 3842 3842 3842 3842 3842 3842 3842 3842 3842 3842 3842 3842 3842 3842 3842 3842 3885 3885 3885 3930 3885 3930 3885 3885 3885 3885 3885 3885 3885 3885 3885 3885 3885 3930 3885 3930 3885 3885 3885 3885 3885 3885 3930 3930 3975 3975 3975 3975 3975 3930 3930 3930 3930 3930 3930 3930 3930 3930 3930 635 635 635 635 635 636 636 637 638 639 639 639 641 641 641 641 642 642 642 643 643 644 644 645 645 647 647 650 653 653 654 654 654 654 654 655 655 655 656 658 659 659 660 660 661 661 661 663 664 665 665 667 667 667 668 668 669 669 669 669 670 670 672 672 673 674 674 0 0 0 0 0 0 0 0 0 0 0 0 0 0 0 0 0 0 0 0 0 0 0 0 0 0 0 0 0 0 0 0 0 0 0 0 0 0 0 0 0 0 0 0 0 3975 3930 3930 3930 3930 3930 3930 3930 3930 3975 3975 3975 3975 3975 3975 3975 3975 3975 3975 3930 3930 3930 3930 3930 3930 3930 3975 3975 3975 3975 3975 3975 3930 3930 3930 3930 3975 3975 3975 3975 3975 3975 3975 3930 3930 3975 3975 3975 3975 3975 3975 4021 4021 3975 3975 3975 3975 3975 3975 3975 3930 3975 3930 3975 3975 3975 3975 3975 4021 4021 3975 4021 3975 4021 3975 4021 3975 4021 4021 3975 4021 3930 3975 3930 3930 3930 3930 3930 3930 3930 3930 3930 3975 3930 3930 3975 3975 3975 3930 3930 3930 3930 3930 3930 3975 3975 3975 4021 4021 4021 4021 4021 4021 3975 3975 3975 3975 3975 3975 3975 3975 3975 3975 3975 3930 3930 3930 3930 3930 3885 3885 3885 3885 3885 3842 3842 3842 3842 3842 3842 3842 3842 3800 3759 3759 3759 3718 3679 3679 3679 3640 3640 3640 3640 3640 3640 3602 3602 3602 3602 3565 3565 3565 3565 3565 3528 3493 3458 3423 3423 3423 3423 3423 3390 3390 3423 3423 3390 3390 3390 3357 3357 3324 3293 3293 3262 3262 3231 3231 3231 3231 3231 3201 3201 3172 3201 3172 3172
    0 0 0 0 0 0 0 0 0 0 0 0 0 0 0 0 0 0 0 0 0 0 0 0 0 0 0 0 0 0 0 0 0 0 0 0 0 0 0 0 0 0 0 0 0 0 0 0 0 0 0 0 0 0 0 0 0 0 0 0 0 0 0 0 0 0 0 0 0 0 0 0 0 0 0 0 0 0 0 0 0 0 0 0 0 0 0 0 0 0 0 0 0 0 0 0 0 0 2244 2244 2230 2244 2244 2244 2259 2259 2259 2259 2259 2274 2274 2289 2304 2304 2320 2320 2335 0 0 0 0 3528 3640 3640 3679 3679 3679 3679 3679 3679 3679 3640 3640 3640 3640 3679 3679 3679 3679 3679 3679 3679 3679 3679 3679 3679 3679 3679 3679 3679 3679 3679 3679 3640 3640 3640 3640 3602 3640 3640 3640 3640 3679 3679 3679 3679 3679 3679 3679 3679 3679 3679 3679 3679 3679 3718 3679 3679 3679 3679 3679 3679 3679 3679 3679 3718 3718 3718 3718 3718 3718 3718 3718 3718 3718 3718 3718 3718 3718 3718 3718 3718 3718 3679 3679 3718 3718 3718 3759 3718 3759 3759 3800 3800 3800 3800 3800 3842 3800 3800 3759 3759 3718 3718 3759 3718 3718 3718 3718 3718 3718 3759 3718 3759 3759 3759 3800 3800 3800 3800 3800 3800 3800 3800 3800 3800 3759 3800 3800 3800 3800 3800 3800 3800 3800 3800 3800 3800 3800 3800 3842 3842 3842 3842 3842 3842 3842 3842 3842 3842 3842 3842 3842 3842 3842 3842 3842 3842 3842 3842 3800 3842 3842 3842 3842 3842 3842 3885 3885 3885 3885 3885 3885 3885 3885 3885 3885 3885 3885 3885 3885 3885 3885 3885 3885 3885 3885 3885 3885 3885 3885 3885 3885 3930 3930 3975 3975 3975 3975 3975 3930 3930 3930 3930 3930 3930 3930 3930 3930 3930 634 634 635 635 635 636 636 637 638 638 638 639 639 639 639 641 641 642 642 642 643 643 644 644 644 645 647 648 650 651 651 653 653 654 654 654 655 655 655 655 658 659 659 659 660 660 661 663 664 664 665 665 667 667 668 668 669 669 669 669 670 670 670 672 672 673 674 676 0 0 0 0 0 0 0 0 0 0 0 0 0 0 0 0 0 0 0 0 0 0 0 0 0 0 0 0 0 0 0 0 0 0 0 0 0 0 0 0 0 0 0 0 0 0 0 3930 3930 3930 3930 3930 3975 4021 4021 4021 4021 3975 3975 3975 3975 3975 3930 3930 3930 3930 3930 3930 3930 3930 3975 3975 3975 3975 3975 3975 3975 3930 3930 3930 3975 3975 3975 3975 3975 3975 3975 3930 3930 3975 3975 3975 3975 3975 3975 4021 4021 3975 3975 3975 3975 3975 3975 3975 3975 3975 3930 3930 3975 3975 3975 3975 4021 4021 4021 4021 4021 4021 4021 4021 4021 4021 4021 4021 4021 3975 3975 3930 3975 3930 3975 3975 3930 3930 3930 3975 3975 3930 3930 3975 3975 3975 3975 3930 3930 3975 3930 3930 3975 3975 3975 4021 4021 4021 4021 4021 4021 3975 3975 3975 3975 3975 3975 3975 3975 3975 3975 3930 3930 3885 3930 3930 3885 3885 3885 3885 3885 3885 3842 3842 3842 3842 3842 3842 3842 3842 3800 3759 3759 3718 3718 3679 3679 3640 3640 3640 3640 3640 3640 3640 3602 3602 3602 3602 3565 3565 3565 3565 3565 3528 3493 3458 3423 3423 3423 3423 3390 3390 3390 3423 3423 3423 3390 3390 3357 3357 3324 3293 3293 3262 3262 3231 3231 3231 3231 3231 3201 3201 3172 3201 3172 3172
    0 0 0 0 0 0 0 0 0 0 0 0 0 0 0 0 0 0 0 0 0 0 0 0 0 0 0 0 0 0 0 0 0 0 0 0 0 0 0 0 0 0 0 0 0 0 0 0 0 0 0 0 0 0 0 0 0 0 0 0 0 0 0 0 0 0 0 0 0 0 0 0 0 0 0 0 0 0 0 0 0 0 0 0 0 0 0 0 0 0 0 0 0 0 0 0 0 0 2230 2244 2244 2244 2244 2244 2259 2259 2259 2259 2259 2259 2274 2274 2289 2304 2320 2320 2320 0 0 0 0 0 3640 3679 3679 3679 3640 3679 3640 3679 3640 3640 3640 3640 3640 3679 3679 3679 3679 3679 3679 3679 3679 3679 3679 3679 3679 3679 3679 3679 3640 3640 3640 3640 3640 3640 3602 3602 3640 3640 3640 3640 3679 3679 3679 3679 3679 3679 3679 3679 3679 3718 3679 3679 3679 3718 3679 3679 3679 3679 3679 3679 3679 3679 3679 3718 3718 3718 3718 3718 3718 3679 3718 3718 3718 3718 3718 3718 3718 3718 3718 3718 3718 3679 3679 3679 3718 3718 3718 3718 3718 3759 3759 3759 3800 3800 3800 3842 3800 3800 3759 3759 3759 3759 3759 3718 3718 3718 3718 3718 3718 3759 3718 3759 3759 3759 3800 3800 3800 3800 3800 3800 3800 3800 3800 3800 3800 3800 3800 3800 3800 3800 3800 3800 3800 3800 3800 3800 3800 3800 3800 3842 3842 3842 3842 3842 3842 3842 3842 3842 3842 3842 3842 3842 3842 3842 3842 3842 3842 3842 3842 3842 3842 3842 3842 3842 3842 3885 3885 3885 3885 3885 3885 3885 3885 3885 3885 3885 3885 3885 3885 3885 3885 3885 3885 3885 3885 3885 3885 3885 3885 3885 3885 3885 3930 3975 3975 3975 3975 3975 3930 3930 3930 3930 3930 3930 3930 3930 3930 3930 632 632 634 635 635 635 636 636 637 638 638 639 639 639 639 641 641 641 641 641 642 643 643 643 644 645 645 647 648 649 650 650 651 651 653 654 654 654 655 655 656 658 659 659 659 660 660 661 663 664 664 665 665 667 668 668 668 669 669 669 670 670 670 672 673 673 673 674 676 677 677 0 678 0 0 0 0 0 0 0 0 0 0 0 0 0 0 0 0 0 0 0 0 0 0 0 0 0 0 0 0 0 0 0 0 0 0 0 0 0 0 0 0 0 0 0 0 0 0 0 0 4068 4068 4068 4021 4021 4021 4021 3975 3975 3975 3975 3930 3930 3930 3930 3930 3930 3975 3975 3975 3975 3975 3975 3975 3975 3930 3975 3975 3975 3975 4021 3975 3975 3975 3975 3975 3975 3975 3975 3975 3975 3975 3975 3975 3975 3975 3975 3975 3930 3930 3930 3930 3930 3930 3930 3975 3975 3975 4021 4021 4021 4021 4021 4021 4021 4021 4021 4021 4021 4021 4021 4021 3975 3975 3930 3975 3930 3975 3975 3975 3975 3975 3975 3975 3975 3975 3975 4021 4021 3975 3975 3975 3975 3975 3930 3975 3975 4021 4021 4021 4021 4021 4021 4021 3975 3975 3975 3975 3975 3975 3975 3975 3975 4021 3975 3930 3930 3930 3930 3930 3885 3885 3885 3885 3885 3842 3842 3842 3842 3842 3842 3842 3800 3800 3759 3759 3718 3718 3679 3679 3640 3640 3640 3640 3640 3640 3640 3602 3602 3602 3602 3602 3565 3565 3565 3528 3528 3493 3458 3423 3423 3423 3423 3423 3423 3423 3423 3423 3423 3390 3390 3357 3357 3324 3293 3293 3262 3262 3231 3231 3231 3231 3231 3201 3201 3201 3201 3172 3172
    0 0 0 0 0 0 0 0 0 0 0 0 0 0 0 0 0 0 0 0 0 0 0 0 0 0 0 0 0 0 0 0 0 0 0 0 0 0 0 0 0 0 0 0 0 0 0 0 0 0 0 0 0 0 0 0 0 0 0 0 0 0 0 0 0 0 0 0 0 0 0 0 0 0 0 0 0 0 0 0 0 0 0 0 0 0 0 0 0 0 0 0 0 0 0 0 0 0 2215 2230 2230 2230 2244 2244 2244 2244 2259 2259 2259 2259 2274 2274 2289 2289 2304 2304 2320 0 0 0 0 0 3640 3640 3679 3640 3640 3679 3679 3679 3679 3640 3640 3640 3640 3679 3679 3679 3679 3679 3679 3679 3679 3679 3640 3679 3679 3679 3679 3679 3640 3640 3640 3640 3640 3640 3640 3640 3640 3679 3679 3679 3679 3679 3679 3679 3679 3679 3679 3718 3679 3718 3679 3679 3679 3718 3679 3679 3679 3679 3679 3679 3679 3679 3679 3679 3718 3718 3718 3718 3718 3679 3718 3718 3718 3718 3718 3718 3718 3718 3718 3718 3718 3679 3679 3718 3718 3718 3718 3718 3718 3718 3759 3759 3759 3759 3800 3842 3800 3800 3759 3759 3759 3759 3759 3718 3718 3718 3718 3718 3718 3718 3718 3759 3759 3759 3759 3800 3800 3800 3800 3800 3800 3800 3800 3800 3759 3800 3800 3800 3800 3800 3800 3800 3800 3800 3800 3800 3800 3800 3800 3800 3842 3842 3842 3842 3842 3842 3842 3842 3842 3842 3842 3842 3842 3842 3842 3842 3842 3842 3842 3842 3842 3842 3842 3842 3842 3842 3842 3885 3885 3885 3885 3885 3885 3885 3885 3885 3885 3885 3885 3885 3885 3842 3885 3842 3885 3885 3842 3885 3885 3885 3885 3885 3930 3930 3975 3975 3975 3975 3930 3930 3930 3930 3930 3930 3930 3930 3975 631 631 632 632 634 635 635 636 636 637 638 638 638 639 639 639 639 641 639 641 641 641 642 643 643 643 644 645 645 647 647 649 649 650 651 651 653 654 654 655 655 656 658 658 659 659 660 660 661 663 663 664 665 665 667 667 668 668 668 669 669 670 670 670 672 673 673 674 674 676 676 677 677 678 678 680 680 680 680 681 0 0 0 0 0 0 0 0 0 0 0 0 0 0 0 0 0 0 0 0 0 0 0 0 0 0 0 0 0 0 0 0 0 0 0 0 0 0 0 0 0 0 0 0 4068 4021 4021 4021 3975 3975 3975 3930 3930 3930 3930 3930 3930 3930 3930 4021 3975 3975 3975 3975 3975 3975 3975 3930 3975 3975 3975 3975 3975 3975 3975 3975 3930 3930 3975 3975 3975 3975 3975 3975 3975 3975 3975 3975 3975 3975 3930 3930 3930 3930 3930 3930 3930 3975 3975 4021 4021 4068 4068 4068 4068 4021 4068 4021 4021 4021 4021 4021 4021 4021 3975 3975 3975 3975 3975 3975 3975 3975 3975 3975 3975 3975 3975 3975 3975 4021 4021 3975 3975 3975 3975 3930 3930 3975 3975 4021 4021 4021 4021 4021 4021 3975 3975 3975 3975 3975 3975 3975 3975 3975 3975 4021 3975 3930 3930 3930 3975 3930 3930 3885 3885 3885 3885 3842 3842 3842 3842 3800 3800 3800 3800 3759 3718 3759 3718 3718 3718 3679 3640 3640 3640 3602 3602 3602 3640 3602 3602 3602 3602 3602 3565 3565 3565 3528 3493 3493 3458 3423 3423 3423 3423 3423 3423 3390 3390 3357 3390 3357 3357 3324 3324 3293 3293 3293 3262 3262 3231 3231 3231 3231 3201 3201 3172 3172 3172 3143 3143
    0 0 0 0 0 0 0 0 0 0 0 0 0 0 0 0 0 0 0 0 0 0 0 0 0 0 0 0 0 0 0 0 0 0 0 0 0 0 0 0 0 0 0 0 0 0 0 0 0 0 0 0 0 0 0 0 0 0 0 0 0 0 0 0 0 0 0 0 0 0 0 0 0 0 0 0 0 0 0 0 0 0 0 0 0 0 0 0 0 0 0 0 0 0 0 0 0 0 2215 2215 2215 2215 2230 2230 2230 2244 2244 2259 2259 2259 2274 2274 2289 2304 2304 2304 2320 0 0 0 0 0 3602 3640 3640 3640 3640 3640 3640 3679 3640 3640 3640 3640 3679 3679 3679 3679 3679 3679 3640 3679 3679 3640 3640 3640 3640 3640 3679 3679 3640 3640 3640 3640 3640 3640 3640 3640 3679 3679 3679 3679 3679 3679 3679 3679 3679 3679 3679 3718 3679 3718 3679 3679 3679 3718 3679 3679 3679 3679 3679 3679 3679 3679 3679 3679 3718 3718 3718 3718 3718 3679 3718 3718 3718 3718 3718 3718 3718 3718 3718 3718 3718 3718 3679 3718 3718 3718 3718 3718 3718 3718 3759 3759 3759 3759 3800 3842 3800 3800 3800 3800 3759 3759 3759 3759 3759 3718 3759 3759 3759 3718 3718 3759 3759 3759 3759 3800 3800 3800 3800 3800 3800 3800 3800 3800 3800 3800 3800 3800 3800 3800 3800 3800 3800 3800 3800 3800 3800 3800 3800 3800 3800 3800 3800 3842 3842 3842 3842 3842 3842 3800 3842 3842 3842 3842 3842 3842 3842 3842 3842 3842 3842 3842 3842 3842 3842 3842 3842 3842 3885 3885 3885 3885 3885 3885 3885 3885 3885 3885 3885 3885 3885 3842 3885 3842 3885 3842 3842 3885 3885 3885 3885 3885 3885 3930 3930 3930 3975 3975 3930 3930 3930 3885 3930 3930 3885 3930 3975 631 631 632 632 634 634 635 636 636 636 637 638 638 639 639 639 639 641 641 641 641 641 642 642 642 643 644 645 645 645 645 648 649 649 650 650 651 653 654 654 655 655 656 658 658 659 659 660 660 661 663 664 664 665 665 667 667 668 668 668 669 669 670 670 672 672 673 673 674 676 676 677 677 678 678 680 680 680 680 681 681 681 0 0 0 0 0 0 0 0 0 0 0 0 0 0 0 0 0 0 0 0 0 0 0 0 0 0 0 0 0 0 0 0 0 0 0 0 0 0 0 0 0 0 0 0 0 0 3930 3930 3930 3930 3930 3930 3930 3930 3930 3930 3930 3975 3975 3975 3975 3975 3975 3975 3975 3930 3975 3975 3975 3975 3975 3975 3975 3930 3930 3930 3975 4021 3975 3975 3975 3975 3975 3975 3975 3975 3975 3975 3930 3930 3930 3930 3930 3930 3975 3975 4021 4021 4068 4068 4068 4068 4068 4021 4021 4021 4021 4021 4021 3975 3975 3975 3930 3975 3930 3930 3930 3975 3975 3975 3975 3975 3975 3975 3975 3975 3975 3975 4021 4021 3975 3975 3975 3930 3930 3975 3975 3975 4021 4021 4021 4021 4021 4021 4021 3975 3975 3975 4021 4021 4021 3975 3975 4021 3975 3930 3930 3930 3975 3930 3930 3885 3885 3885 3885 3842 3842 3842 3842 3800 3800 3800 3800 3759 3718 3718 3718 3718 3718 3679 3679 3679 3640 3640 3640 3602 3640 3602 3602 3602 3602 3602 3565 3565 3565 3565 3528 3493 3458 3458 3458 3458 3423 3423 3423 3390 3390 3357 3357 3324 3324 3293 3293 3262 3262 3262 3262 3262 3231 3231 3231 3231 3231 3201 3201 3201 3172 3143 3172
    0 0 0 0 0 0 0 0 0 0 0 0 0 0 0 0 0 0 0 0 0 0 0 0 0 0 0 0 0 0 0 0 0 0 0 0 0 0 0 0 0 0 0 0 0 0 0 0 0 0 0 0 0 0 0 0 0 0 0 0 0 0 0 0 0 0 0 0 0 0 0 0 0 0 0 0 0 0 0 0 0 0 0 0 0 0 0 0 0 0 0 0 0 0 0 0 0 0 2215 2215 2215 2215 2230 2230 2230 2244 2244 2259 2259 2259 2259 2274 2274 2289 2289 2289 0 0 0 0 0 0 3640 3640 3640 3640 3640 3640 3640 3679 3679 3640 3640 3640 3679 3679 3679 3679 3640 3640 3640 3640 3679 3640 3640 3640 3640 3640 3640 3640 3640 3640 3640 3640 3640 3679 3679 3640 3679 3679 3679 3679 3679 3679 3679 3679 3679 3679 3679 3718 3679 3718 3718 3679 3679 3718 3679 3679 3679 3679 3679 3679 3679 3679 3679 3679 3679 3679 3679 3679 3679 3679 3679 3718 3679 3718 3718 3718 3718 3718 3718 3679 3718 3679 3679 3718 3718 3718 3718 3718 3718 3718 3759 3759 3759 3759 3800 3800 3759 3800 3800 3759 3759 3759 3759 3759 3759 3759 3759 3759 3759 3759 3759 3759 3759 3759 3759 3800 3800 3800 3800 3800 3800 3800 3800 3800 3800 3800 3800 3800 3800 3800 3800 3800 3800 3800 3800 3800 3800 3800 3800 3800 3800 3800 3800 3800 3800 3800 3842 3842 3800 3800 3842 3842 3842 3842 3842 3842 3842 3842 3842 3842 3842 3842 3842 3842 3842 3842 3842 3842 3885 3885 3885 3885 3885 3885 3885 3885 3885 3885 3885 3885 3885 3842 3842 3842 3842 3842 3842 3842 3842 3885 3885 3885 3885 3930 3930 3930 3930 3930 3930 3930 3885 3885 3885 3885 3885 3930 3930 631 631 631 631 632 634 634 635 635 636 637 637 637 638 638 639 639 639 639 639 641 641 642 642 642 643 644 644 645 645 645 647 648 649 649 650 650 651 653 654 654 655 655 656 658 658 659 660 660 661 661 663 664 665 665 667 667 667 668 668 669 669 669 670 670 672 673 673 674 674 676 677 677 678 678 680 680 680 681 681 681 682 684 684 0 685 686 0 0 0 0 0 0 0 0 0 0 0 0 0 0 0 0 0 0 0 0 0 0 0 0 0 0 0 0 0 0 0 0 0 0 0 0 0 0 0 0 0 0 0 3930 3930 3930 3930 3930 3930 3930 3930 3975 3975 4021 3975 3975 3975 3975 3975 3975 3930 3975 3975 3930 3930 3930 3975 3930 3930 3930 3930 3975 3975 3975 3975 3975 3975 3975 3975 3975 3975 3975 3975 3975 3930 3930 3930 3930 3930 3930 3975 4021 4021 4068 4068 4068 4068 4068 4068 4021 4021 4021 3975 3975 3975 3975 3975 3930 3975 3975 3975 3975 3975 3975 3975 3975 3930 3975 3975 3975 3975 3975 3975 4021 4021 3975 3975 3975 3930 3930 3930 3930 3975 3975 4021 4021 4021 4021 4021 4021 3975 4021 4021 4021 4021 4021 4021 4021 4021 3975 3975 3930 3930 3975 3975 3930 3930 3885 3885 3885 3842 3842 3842 3800 3800 3800 3800 3800 3759 3718 3759 3718 3718 3718 3679 3679 3679 3679 3640 3640 3640 3640 3602 3602 3602 3602 3602 3565 3565 3565 3528 3493 3493 3458 3458 3458 3423 3423 3423 3390 3357 3324 3324 3324 3293 3293 3293 3293 3262 3262 3262 3262 3262 3231 3231 3231 3231 3201 3172 3172 3172 3172 3143 3143
    0 0 0 0 0 0 0 0 0 0 0 0 0 0 0 0 0 0 0 0 0 0 0 0 0 0 0 0 0 0 0 0 0 0 0 0 0 0 0 0 0 0 0 0 0 0 0 0 0 0 0 0 0 0 0 0 0 0 0 0 0 0 0 0 0 0 0 0 0 0 0 0 0 0 0 0 0 0 0 0 0 0 0 0 0 0 0 0 0 0 0 0 0 0 0 0 0 0 2215 2215 2215 2230 2230 2230 2230 2244 2244 2259 2259 2259 2259 2274 2274 2274 2274 2289 0 0 0 0 0 0 3640 3640 3640 3640 3640 3640 3640 3640 3640 3640 3640 3640 3679 3679 3679 3679 3679 3679 3679 3679 3679 3640 3640 3640 3640 3640 3640 3640 3640 3640 3640 3640 3640 3679 3679 3679 3679 3679 3679 3679 3679 3679 3679 3679 3679 3679 3679 3679 3679 3679 3679 3679 3679 3679 3679 3679 3679 3679 3679 3679 3679 3679 3679 3679 3679 3679 3679 3679 3679 3679 3679 3679 3679 3718 3718 3718 3718 3718 3718 3718 3718 3679 3679 3679 3679 3718 3718 3718 3718 3718 3718 3718 3759 3759 3759 3800 3759 3800 3800 3759 3759 3759 3759 3718 3718 3718 3718 3718 3759 3718 3759 3759 3759 3759 3759 3800 3800 3800 3759 3800 3800 3800 3800 3800 3800 3800 3800 3800 3800 3800 3800 3800 3800 3800 3800 3800 3800 3800 3800 3800 3800 3800 3800 3800 3800 3800 3800 3800 3800 3800 3800 3842 3842 3842 3842 3842 3842 3842 3842 3842 3842 3842 3800 3842 3842 3842 3842 3842 3842 3885 3885 3885 3885 3885 3885 3885 3885 3885 3885 3842 3842 3842 3842 3842 3842 3842 3842 3842 3885 3885 3885 3885 3885 3930 3930 3930 3930 3930 3885 3930 3885 3885 3885 3885 3885 3930 3930 631 631 631 631 632 632 634 635 635 635 636 636 637 637 638 638 639 639 639 639 639 641 641 641 642 643 644 644 644 645 645 647 647 648 648 649 649 650 653 653 654 655 655 656 656 658 658 659 660 660 661 663 663 664 665 665 667 667 668 668 668 669 669 669 670 670 672 673 674 674 676 677 677 678 678 680 680 680 681 681 681 682 682 684 684 685 686 686 686 688 688 689 688 688 689 689 689 0 0 0 0 0 0 0 0 0 0 0 0 0 0 0 0 0 0 0 0 0 0 0 0 0 0 0 0 0 0 0 0 0 0 0 0 3930 3975 3975 3930 3930 3975 4021 4021 3975 3975 3975 3975 3975 3975 3930 3930 3930 3930 3930 3930 3930 3930 3885 3930 3930 3930 3975 3975 3930 3975 3975 3975 3975 3975 3975 3975 3975 3975 3975 3975 3930 3930 3930 3975 3975 4021 4021 4068 4068 4068 4068 4068 4068 4021 4021 4021 3975 3975 3975 3975 3975 3975 3975 3975 3975 3975 3975 3975 3975 3975 3930 3930 3930 3975 3975 3975 3975 4021 4021 3975 3975 3975 3975 3975 3975 3975 3975 3975 3975 3975 4021 4021 4021 4021 3975 4021 4021 4021 4021 4021 4021 4021 4021 3975 3975 3930 3930 3975 3930 3930 3885 3885 3842 3842 3842 3842 3842 3800 3759 3759 3800 3800 3759 3718 3718 3718 3718 3718 3679 3679 3679 3679 3640 3640 3640 3640 3602 3602 3602 3602 3602 3565 3565 3565 3528 3528 3493 3458 3458 3423 3423 3390 3357 3324 3324 3324 3324 3324 3293 3293 3293 3262 3231 3231 3262 3262 3262 3231 3231 3231 3231 3201 3201 3172 3172 3172 3143 3143
    0 0 0 0 0 0 0 0 0 0 0 0 0 0 0 0 0 0 0 0 0 0 0 0 0 0 0 0 0 0 0 0 0 0 0 0 0 0 0 0 0 0 0 0 0 0 0 0 0 0 0 0 0 0 0 0 0 0 0 0 0 0 0 0 0 0 0 0 0 0 0 0 0 0 0 0 0 0 0 0 0 0 0 0 0 0 0 0 0 0 0 0 0 0 0 0 0 0 0 2215 2215 2215 2215 2215 2215 2230 2244 2244 2244 2244 2259 2259 2274 2274 2274 2274 0 0 0 0 0 0 3640 3640 3640 3640 3640 3640 3640 3640 3640 3640 3640 3679 3679 3679 3679 3679 3679 3679 3640 3640 3640 3640 3640 3640 3640 3640 3640 3640 3640 3640 3640 3640 3640 3679 3679 3679 3679 3679 3679 3679 3679 3679 3679 3679 3679 3679 3679 3679 3679 3679 3679 3679 3718 3718 3718 3718 3718 3718 3718 3718 3679 3679 3679 3679 3679 3679 3679 3679 3679 3679 3679 3679 3679 3718 3718 3718 3718 3718 3718 3718 3718 3718 3718 3718 3718 3718 3718 3718 3718 3718 3718 3718 3759 3718 3759 3800 3759 3800 3800 3759 3759 3759 3759 3718 3718 3718 3718 3718 3759 3718 3759 3759 3759 3759 3759 3800 3800 3800 3759 3800 3800 3800 3800 3800 3759 3800 3800 3800 3800 3800 3800 3800 3800 3800 3800 3800 3800 3800 3800 3800 3800 3800 3800 3800 3800 3800 3800 3800 3800 3800 3800 3842 3842 3842 3842 3842 3842 3842 3842 3842 3842 3842 3800 3800 3800 3842 3842 3842 3842 3885 3885 3885 3885 3885 3930 3930 3885 3885 3885 3842 3842 3842 3842 3842 3842 3842 3842 3885 3885 3885 3885 3885 3885 3930 3930 3885 3930 3930 3885 3885 3885 3885 3885 3885 3930 3930 3930 3930 631 631 631 632 632 634 634 635 635 636 636 636 637 637 638 638 639 639 639 639 641 641 641 641 642 643 644 644 644 645 645 647 647 648 649 649 650 651 653 653 654 654 655 656 656 656 659 659 660 660 661 663 664 664 665 665 667 667 668 668 669 669 670 670 672 673 673 674 674 676 676 677 678 678 680 680 680 681 681 681 682 682 682 684 685 686 686 686 688 688 689 688 689 689 691 691 691 0 0 0 0 0 0 0 0 0 0 0 0 0 0 0 0 0 0 0 0 0 0 0 0 0 0 0 0 0 0 0 0 0 0 0 0 0 0 3930 3930 3975 3975 3975 3975 3930 3975 3975 3975 3975 3930 3930 3930 3930 3930 3930 3930 3930 3885 3930 3930 3930 3975 3975 3930 3930 3975 3975 3975 3975 3975 3975 3975 3975 3975 3975 3975 3930 3930 3975 3975 4021 4021 4068 4068 4068 4068 4068 4021 4021 4021 3975 3975 3975 3930 3975 3975 3930 3975 3975 3975 3975 3975 3975 3975 3975 3930 3930 3930 3975 3975 3975 3975 4021 4021 4021 4021 3975 3975 3975 3975 3975 3975 3975 3975 4021 4021 4021 4021 4021 4021 4021 4021 4021 4021 4021 4021 4021 4021 4021 3975 3930 3975 3975 3930 3885 3885 3842 3842 3842 3842 3842 3800 3800 3800 3800 3800 3800 3759 3718 3718 3718 3718 3718 3679 3679 3679 3679 3640 3640 3640 3640 3640 3640 3602 3602 3602 3565 3565 3565 3528 3493 3493 3458 3458 3423 3423 3390 3357 3357 3357 3357 3324 3324 3293 3293 3293 3293 3231 3231 3262 3231 3262 3231 3231 3231 3231 3201 3201 3172 3172 3172 3143 3172
    0 0 0 0 0 0 0 0 0 0 0 0 0 0 0 0 0 0 0 0 0 0 0 0 0 0 0 0 0 0 0 0 0 0 0 0 0 0 0 0 0 0 0 0 0 0 0 0 0 0 0 0 0 0 0 0 0 0 0 0 0 0 0 0 0 0 0 0 0 0 0 0 0 0 0 0 0 0 0 0 0 0 0 0 0 0 0 0 0 0 0 0 0 0 0 0 0 0 0 2215 2215 2215 2215 2215 2215 2230 2230 2244 2244 2244 2259 2259 2259 2259 2274 2274 2274 0 0 0 0 0 0 3602 3640 3640 3640 3640 3640 3640 3679 3640 3640 3679 3679 3679 3679 3679 3679 3679 3679 3679 3679 3679 3640 3640 3640 3640 3640 3640 3640 3640 3640 3640 3679 3679 3679 3679 3679 3679 3679 3679 3679 3679 3679 3679 3679 3679 3679 3679 3679 3679 3679 3679 3679 3679 3718 3718 3718 3718 3679 3679 3718 3679 3679 3679 3679 3679 3679 3679 3679 3679 3679 3679 3679 3679 3718 3718 3718 3718 3718 3718 3718 3718 3718 3718 3718 3718 3718 3718 3718 3718 3718 3718 3718 3718 3759 3800 3759 3759 3800 3759 3759 3759 3759 3718 3759 3759 3759 3759 3759 3759 3759 3759 3759 3759 3759 3759 3759 3759 3759 3759 3759 3800 3800 3759 3759 3800 3800 3800 3800 3800 3800 3800 3800 3800 3800 3800 3800 3800 3800 3800 3800 3800 3800 3800 3800 3800 3800 3800 3800 3800 3800 3800 3842 3842 3842 3842 3842 3842 3842 3842 3842 3842 3842 3842 3800 3842 3842 3842 3842 3842 3885 3885 3885 3930 3930 3930 3885 3885 3885 3885 3842 3842 3842 3842 3842 3842 3842 3885 3885 3885 3885 3885 3885 3885 3930 3885 3885 3930 3885 3885 3885 3885 3885 3930 3930 3930 3930 628 630 630 631 631 632 632 634 634 635 635 635 636 636 636 637 638 638 638 639 639 639 641 641 641 641 642 643 644 644 644 645 645 647 647 649 649 650 651 651 653 653 654 654 655 655 655 656 658 659 659 660 660 663 663 664 665 665 667 667 668 669 669 669 670 670 672 673 674 674 676 676 676 677 677 678 680 680 680 680 681 681 682 682 684 685 685 686 686 688 688 689 688 689 689 689 691 691 691 0 0 0 0 0 0 0 0 0 0 0 0 0 0 0 0 0 0 0 0 0 0 0 0 0 0 0 0 0 0 0 0 0 0 0 0 0 0 0 0 3975 3975 3975 3930 3975 3975 3975 3975 3975 3975 3975 3930 3930 3930 3885 3930 3930 3930 3930 3930 3975 3930 3930 3930 3930 3930 3930 3930 3975 3975 3975 3975 3975 3975 3975 3930 3975 3975 3975 4021 4021 4068 4068 4068 4068 4068 4021 4021 3975 3975 3975 3930 3930 3975 3975 3975 3975 3975 3975 3975 3975 3975 3975 3975 3975 3930 3930 3930 3930 3930 3975 3975 3975 4021 4021 4021 4021 4021 4021 3975 4021 3975 3975 3975 4021 4021 4021 4021 4021 4021 4021 4021 4021 4021 4021 4021 4021 4021 3975 3930 3975 3975 3975 3930 3885 3885 3842 3842 3842 3842 3842 3800 3800 3800 3800 3800 3759 3718 3759 3759 3759 3718 3718 3679 3679 3679 3679 3679 3640 3640 3640 3602 3602 3602 3565 3565 3528 3528 3528 3493 3493 3458 3458 3423 3423 3390 3390 3357 3357 3357 3324 3324 3293 3293 3293 3293 3231 3231 3262 3231 3262 3231 3231 3231 3231 3201 3201 3201 3172 3172 3143 3172
    0 0 0 0 0 0 0 0 0 0 0 0 0 0 0 0 0 0 0 0 0 0 0 0 0 0 0 0 0 0 0 0 0 0 0 0 0 0 0 0 0 0 0 0 0 0 0 0 0 0 0 0 0 0 0 0 0 0 0 0 0 0 0 0 0 0 0 0 0 0 0 0 0 0 0 0 0 0 0 0 0 0 0 0 0 0 0 0 0 0 0 0 0 0 0 0 0 0 2201 2201 2215 2215 2215 2215 2215 2215 2230 2244 2244 2244 2259 2259 2259 2259 2274 2274 2274 0 0 0 0 0 0 3640 3640 3640 3640 3640 3640 3640 3679 3640 3640 3640 3640 3640 3640 3640 3640 3640 3679 3679 3679 3679 3679 3640 3640 3640 3640 3640 3640 3640 3640 3640 3640 3679 3679 3679 3679 3679 3679 3679 3679 3679 3679 3679 3679 3679 3679 3679 3679 3679 3679 3679 3679 3679 3679 3679 3718 3679 3679 3679 3679 3679 3679 3679 3679 3679 3679 3679 3679 3679 3679 3679 3718 3718 3718 3718 3718 3718 3718 3718 3718 3718 3718 3718 3718 3718 3718 3718 3718 3718 3718 3718 3718 3718 3718 3759 3718 3759 3759 3718 3718 3759 3759 3718 3759 3759 3759 3759 3759 3759 3759 3759 3759 3759 3759 3759 3759 3759 3759 3759 3759 3759 3759 3759 3759 3759 3800 3800 3800 3800 3800 3800 3800 3800 3800 3800 3800 3800 3800 3800 3800 3800 3800 3800 3800 3800 3800 3800 3800 3800 3800 3800 3842 3842 3842 3842 3842 3842 3842 3842 3842 3842 3800 3800 3800 3842 3842 3842 3842 3885 3885 3930 3930 3930 3930 3930 3885 3885 3885 3842 3842 3842 3842 3842 3842 3885 3842 3885 3885 3885 3885 3885 3885 3885 3885 3885 3885 3885 3885 3885 3885 3885 3885 3930 3930 3930 3930 630 630 630 630 631 631 631 632 634 634 635 635 636 636 636 637 637 638 637 638 639 639 641 641 641 641 642 643 643 643 644 644 645 647 647 648 649 649 650 650 651 653 654 654 655 655 655 656 656 658 658 659 659 661 661 663 664 665 665 665 667 668 668 669 669 670 670 672 674 674 674 676 676 676 677 677 678 680 680 680 681 681 681 682 684 685 685 686 686 686 688 689 688 689 689 689 691 691 691 691 0 0 0 0 0 0 0 0 0 0 0 0 0 0 0 0 0 0 0 0 0 0 0 0 0 0 0 0 0 0 0 0 0 0 0 0 0 0 0 0 0 3930 3885 3930 3975 3975 3975 3975 3930 3975 3930 3930 3930 3930 3930 3930 3930 3930 3930 3975 3930 3930 3930 3975 3975 3975 3975 3975 3975 3975 3975 3975 3975 3975 3930 3975 3930 3975 4021 4021 4068 4068 4068 4068 4021 3975 3975 3975 3930 3930 3930 3930 3975 3975 3975 3975 4021 3975 3975 3975 3975 3975 3975 3930 3930 3930 3930 3930 3930 3975 3975 3975 3975 4021 3975 4021 4021 4021 3975 3975 3975 3975 3975 3975 4021 4021 4021 4021 4021 4021 4021 4021 4021 4021 4021 4021 4021 4021 3975 3975 3975 3975 3930 3930 3885 3842 3842 3842 3842 3842 3800 3800 3800 3800 3759 3759 3718 3718 3759 3759 3718 3718 3718 3718 3718 3679 3679 3640 3640 3640 3602 3565 3565 3565 3565 3565 3528 3528 3493 3493 3458 3458 3423 3423 3423 3390 3390 3357 3357 3324 3324 3293 3293 3293 3293 3231 3231 3231 3231 3231 3231 3231 3231 3231 3201 3201 3201 3172 3172 3172 3201
    0 0 0 0 0 0 0 0 0 0 0 0 0 0 0 0 0 0 0 0 0 0 0 0 0 0 0 0 0 0 0 0 0 0 0 0 0 0 0 0 0 0 0 0 0 0 0 0 0 0 0 0 0 0 0 0 0 0 0 0 0 0 0 0 0 0 0 0 0 0 0 0 0 0 0 0 0 0 0 0 0 0 0 0 0 0 0 0 0 0 0 0 0 0 0 0 0 0 2201 2201 2201 2201 2201 2201 2215 2215 2230 2230 2244 2244 2259 2259 2259 2259 2274 2274 2259 0 0 0 0 0 0 2680 2659 2659 2639 2659 2659 3640 3640 2659 3640 3640 3640 3640 3640 3640 3640 3640 3679 3640 3679 3679 3679 3640 3640 3640 3640 3640 3640 3640 3640 3640 3640 3679 3679 3679 3679 3679 3679 3679 3679 3679 3679 3679 3679 3679 3679 3679 3679 3679 3679 3679 3679 3679 3679 3679 3718 3679 3679 3679 3679 3679 3679 3679 3679 3679 3679 3679 3679 3679 3679 3679 3718 3679 3718 3718 3718 3718 3718 3718 3718 3718 3718 3718 3718 3718 3718 3718 3718 3718 3718 3718 3718 3718 3718 3759 3679 3718 3718 3718 3718 3759 3759 3759 3759 3759 3759 3800 3800 3759 3759 3759 3759 3759 3759 3759 3759 3759 3718 3718 3759 3759 3759 3718 3759 3759 3800 3800 3800 3800 3800 3800 3800 3800 3800 3800 3800 3800 3800 3800 3800 3800 3800 3800 3800 3800 3800 3800 3800 3800 3800 3800 3800 3842 3842 3842 3842 3842 3842 3842 3842 3842 3800 3800 3800 3842 3842 3842 3842 3842 3885 3885 3885 3930 3930 3885 3885 3885 3885 3842 3842 3842 3842 3842 3842 3842 3842 3885 3885 3885 3885 3885 3885 3885 3885 3885 3885 3930 3885 3930 3885 3885 3930 3930 3930 3930 3930 629 630 630 630 630 630 631 631 632 632 634 635 635 636 636 636 636 637 636 638 638 639 639 639 641 641 641 642 642 642 643 644 645 645 647 648 648 649 649 650 651 651 653 653 654 655 655 655 655 656 656 658 659 660 661 661 664 664 665 665 667 667 668 669 669 669 670 672 673 673 674 674 674 676 676 676 677 678 680 680 680 681 681 682 684 684 685 686 686 686 688 689 688 689 689 689 689 691 691 691 692 692 693 695 696 0 0 0 0 0 0 0 0 0 0 0 0 0 0 0 0 0 0 0 0 0 0 0 0 0 0 0 0 0 0 0 0 0 0 0 0 0 0 0 4021 4021 3975 3975 3975 3975 3930 3930 3885 3885 3930 3885 3930 3930 3930 3930 3930 3930 3930 3975 3975 3975 3975 3975 3975 3975 3975 3975 3975 3975 3975 3975 3975 3975 4021 4021 4021 4021 4021 4021 4021 3975 3930 3930 3930 3930 3930 3930 3930 3975 3975 3975 4021 3975 3975 3975 3975 3930 3930 3930 3885 3930 3930 3930 3930 3930 3975 3975 3975 3975 3975 3975 4021 4021 3975 3975 3975 3975 3975 3975 3975 3975 4021 4021 4021 4021 4021 4021 4021 4021 4021 4021 4021 4021 3975 3975 3975 3975 3930 3930 3885 3885 3842 3842 3842 3842 3842 3800 3759 3800 3759 3759 3718 3718 3759 3759 3718 3718 3718 3718 3718 3679 3679 3640 3640 3602 3565 3565 3565 3565 3565 3528 3528 3528 3528 3528 3458 3458 3423 3423 3423 3390 3390 3390 3390 3324 3324 3324 3293 3293 3293 3262 3231 3231 3231 3231 3231 3231 3231 3201 3201 3201 3201 3172 3172 3201 3201
    0 0 0 0 0 0 0 0 0 0 0 0 0 0 0 0 0 0 0 0 0 0 0 0 0 0 0 0 0 0 0 0 0 0 0 0 0 0 0 0 0 0 0 0 0 0 0 0 0 0 0 0 0 0 0 0 0 0 0 0 0 0 0 0 0 0 0 0 0 0 0 0 0 0 0 0 0 0 0 0 0 0 0 0 0 0 0 0 0 0 0 0 0 0 0 0 0 0 2201 2201 2201 2201 2201 2201 2201 2215 2215 2230 2244 2244 2244 2259 2259 2259 2259 2274 2259 0 0 0 0 0 0 2680 2659 2659 2639 2659 2659 2659 2659 2659 3640 3640 3640 3602 3602 3640 3640 3640 3640 3640 3679 3679 3679 3679 3679 3640 3640 3640 3640 3640 3640 3640 3640 3679 3679 3679 3679 3679 3679 3679 3679 3679 3679 3679 3640 3640 3640 3679 3679 3679 3679 3679 3679 3679 3679 3679 3679 3679 3679 3679 3679 3679 3679 3679 3679 3679 3679 3679 3679 3679 3679 3679 3718 3679 3718 3718 3718 3718 3718 3718 3718 3718 3718 3718 3718 3718 3718 3718 3718 3718 3718 3718 3718 3718 3718 3718 3679 3718 3718 3718 3718 3759 3759 3759 3759 3759 3759 3800 3759 3759 3759 3759 3759 3759 3759 3759 3759 3759 3718 3759 3759 3759 3759 3759 3759 3759 3759 3759 3800 3800 3800 3800 3800 3800 3800 3800 3800 3800 3800 3800 3800 3800 3800 3800 3800 3800 3800 3800 3800 3800 3800 3800 3800 3800 3842 3842 3842 3842 3842 3842 3842 3842 3800 3800 3842 3842 3842 3842 3842 3842 3885 3885 3885 3885 3885 3885 3842 3842 3842 3842 3842 3842 3842 3842 3842 3842 3885 3885 3885 3885 3885 3885 3885 3885 3885 3885 3885 3930 3885 3885 3885 3885 3930 3930 3885 3885 3885 627 629 630 630 630 630 631 631 632 632 632 634 634 635 635 635 636 636 636 637 638 639 639 639 641 641 641 641 642 642 642 643 644 645 645 647 648 649 649 649 650 651 653 653 654 654 654 655 655 655 656 656 658 659 660 660 663 663 664 664 665 665 667 668 669 669 670 672 672 672 673 674 674 674 676 676 676 677 678 678 680 681 681 682 684 684 685 685 686 686 688 688 688 689 689 689 689 691 691 692 692 692 693 695 695 696 0 0 0 0 0 0 0 0 0 0 0 0 0 0 0 0 0 0 0 0 0 0 0 0 0 0 0 0 0 0 0 0 0 0 0 0 0 0 0 0 0 4021 3930 0 3930 3930 3930 3930 3930 3885 3930 3930 3930 3930 3930 3930 3930 3930 3930 3930 3975 3975 3975 3975 3975 3975 3975 3975 3975 3975 3930 3975 3975 3975 3975 4021 4021 4021 3975 3975 3930 3930 3930 3930 3930 3930 3975 3975 3975 3975 4021 3975 3975 3975 3975 3930 3930 3930 3885 3885 3930 3930 3930 3930 3975 3930 3975 3975 3975 3975 3975 3975 3975 3975 3975 3975 3975 3975 4021 4021 4021 4021 4021 4021 4068 4021 4021 4021 4021 4021 4021 4021 3975 3975 3975 3975 3930 3930 3930 3885 3885 3842 3842 3842 3842 3842 3800 3800 3800 3759 3759 3759 3759 3759 3718 3718 3718 3718 3718 3679 3679 3640 3602 3565 3565 3565 3565 3565 3565 3565 3565 3528 3528 3493 3458 3458 3423 3423 3423 3390 3390 3390 3390 3357 3357 3324 3324 3324 3293 3262 3262 3231 3231 3231 3231 3201 3201 3201 3172 3201 3201 3201 3172 3201 3201
    0 0 0 0 0 0 0 0 0 0 0 0 0 0 0 0 0 0 0 0 0 0 0 0 0 0 0 0 0 0 0 0 0 0 0 0 0 0 0 0 0 0 0 0 0 0 0 0 0 0 0 0 0 0 0 0 0 0 0 0 0 0 0 0 0 0 0 0 0 0 0 0 0 0 0 0 0 0 0 0 0 0 0 0 0 0 0 0 0 0 0 0 0 0 0 0 0 2201 2201 2201 2201 2201 2201 2201 2215 2215 2215 2230 2230 2230 2244 2259 2259 2259 2259 2259 2259 0 0 0 0 0 0 2659 2659 2659 2659 2659 2659 2659 2659 2659 0 3602 0 3602 3602 3602 3640 3640 3640 3640 3679 3679 3679 3679 3679 3640 3640 3640 3640 3640 3640 3640 3640 3679 3679 3679 3679 3679 3679 3679 3679 3679 3679 3679 3640 3640 3640 3679 3679 3679 3679 3679 3679 3679 3679 3679 3679 3679 3679 3679 3679 3679 3679 3679 3679 3679 3679 3679 3679 3679 3679 3679 3679 3679 3718 3718 3679 3718 3718 3718 3718 3718 3718 3718 3718 3718 3718 3718 3718 3718 3718 3718 3718 3718 3718 3718 3679 3718 3679 3718 3718 3718 3759 3718 3759 3759 3759 3800 3759 3759 3759 3759 3759 3759 3759 3759 3759 3759 3718 3759 3759 3759 3759 3759 3759 3759 3759 3759 3759 3759 3759 3759 3800 3800 3800 3800 3800 3800 3800 3800 3800 3800 3800 3800 3800 3800 3800 3800 3800 3800 3800 3800 3800 3800 3842 3842 3842 3842 3842 3842 3842 3842 3800 3800 3842 3842 3842 3842 3842 3842 3885 3885 3885 3885 3885 3842 3842 3842 3842 3842 3842 3842 3842 3842 3842 3842 3885 3885 3885 3885 3885 3885 3885 3885 3885 3885 3885 3930 3885 3930 3930 3930 3930 3930 3930 3930 3885 627 629 629 630 630 630 631 631 631 632 632 632 634 634 634 635 635 636 636 637 637 638 638 639 639 639 641 641 641 642 642 643 644 645 645 647 648 648 649 649 650 650 651 651 653 654 654 654 655 655 655 656 658 659 660 660 661 661 663 663 664 665 665 667 668 668 669 670 672 672 673 674 674 674 674 674 676 676 676 677 678 680 680 681 681 682 685 685 686 686 686 688 688 688 688 689 689 691 691 691 691 692 693 693 695 696 696 698 0 0 0 0 0 0 0 0 0 0 0 0 0 0 0 0 0 0 0 0 0 0 0 0 0 0 0 0 0 0 0 0 0 0 0 0 0 0 0 0 0 0 0 0 0 0 0 0 3930 3930 3930 3930 3930 3975 3975 3975 3930 3930 3975 3975 3975 3975 3975 3975 3975 4021 3975 3975 3930 3930 3930 3930 3975 3975 3975 3975 3975 3930 3930 3930 3930 3930 3930 3930 3975 4021 3975 4021 4021 4021 3975 3975 3975 3930 3930 3930 3885 3885 3885 3930 3930 3930 3930 3930 3930 3975 3930 3975 3975 3975 3975 3975 3975 3975 3975 3975 4021 4021 4021 4021 4021 4021 4068 4021 4021 4021 4021 4021 4021 4021 3975 3975 3975 3975 3975 3975 3930 3930 3885 3885 3842 3842 3842 3842 3842 3842 3800 3759 3759 3759 3759 3718 3718 3718 3718 3718 3718 3679 3679 3640 3602 3565 3565 3565 3565 3565 3565 3528 3528 3528 3493 3458 3423 3423 3390 3390 3390 3390 3390 3390 3390 3357 3357 3324 3324 3324 3324 3262 3262 3262 3231 3231 3231 3201 3172 3201 3172 3201 3201 3201 3201 3201 3201
    0 0 0 0 0 0 0 0 0 0 0 0 0 0 0 0 0 0 0 0 0 0 0 0 0 0 0 0 0 0 0 0 0 0 0 0 0 0 0 0 0 0 0 0 0 0 0 0 0 0 0 0 0 0 0 0 0 0 0 0 0 0 0 0 0 0 0 0 0 0 0 0 0 0 0 0 0 0 0 0 0 0 0 0 0 0 0 0 0 0 0 0 0 0 0 0 0 2201 2201 2201 2201 2201 2201 2201 2201 2215 2215 2215 2230 2230 2244 2259 2259 2259 2259 2259 2259 0 0 0 0 0 0 2659 2659 2659 2659 2659 2680 2659 2659 0 0 0 3602 3602 3602 3602 3640 3640 3640 3640 3679 3679 3679 3679 3640 3640 3640 3640 3640 3640 3640 3640 3640 3679 3679 3679 3679 3679 3679 3679 3679 3679 3679 3679 3640 3640 3640 3640 3679 3679 3679 3679 3679 3679 3679 3679 3679 3679 3679 3679 3679 3679 3679 3679 3679 3679 3679 3679 3679 3679 3679 3679 3679 3679 3679 3679 3679 3718 3718 3718 3718 3718 3718 3718 3718 3718 3759 3718 3718 3718 3718 3718 3718 3718 3718 3718 3679 3679 3679 3718 3718 3759 3759 3759 3759 3759 3759 3759 3759 3759 3759 3759 3759 3759 3759 3759 3759 3759 3718 3718 3759 3759 3759 3759 3759 3759 3800 3759 3759 3800 3759 3759 3800 3800 3800 3800 3800 3800 3800 3800 3800 3800 3800 3800 3800 3800 3800 3800 3800 3800 3800 3800 3800 3800 3842 3842 3842 3800 3800 3800 3800 3800 3800 3800 3842 3842 3842 3842 3842 3842 3842 3842 3885 3885 3842 3842 3842 3842 3842 3842 3842 3842 3842 3842 3842 3842 3885 3885 3885 3885 3885 3885 3885 3885 3885 3885 3885 3930 3885 3885 3930 3885 3930 3930 3930 3930 3885 627 629 629 630 630 630 630 631 631 631 631 631 632 634 634 634 635 636 636 637 637 638 638 639 639 639 641 641 641 641 641 642 643 644 645 645 648 648 649 649 649 650 650 651 653 653 653 654 654 655 655 656 658 659 660 660 661 661 661 663 663 664 665 667 667 667 668 669 670 670 672 673 673 673 674 674 674 676 676 677 677 677 678 680 680 681 684 685 685 686 686 688 688 688 688 689 689 689 691 691 691 692 693 693 695 695 696 696 698 0 0 0 0 0 0 0 0 0 0 0 0 0 0 0 0 0 0 0 0 0 0 0 0 0 0 0 0 0 0 0 0 0 0 0 0 0 0 0 0 0 0 0 0 0 0 0 0 0 3975 3975 3975 4021 3975 3975 3975 3930 3930 3930 3975 3975 3975 3975 3975 4021 3975 3975 3930 3930 3930 3930 3930 3930 3930 3930 3930 3930 3930 3930 3975 3930 3975 3975 4021 4021 4021 4021 4021 4021 3975 3975 3975 3930 3930 3930 3885 3930 3930 3930 3930 3975 3975 3930 3975 3975 3975 4021 4021 4021 4021 4021 3975 3975 4021 3975 4021 4021 4021 4021 4021 4021 4021 4021 4021 4021 4021 4021 4021 4021 4021 4021 4021 4021 3975 3975 3975 3930 3930 3885 3885 3885 3885 3885 3842 3842 3842 3800 3759 3759 3759 3718 3718 3718 3718 3718 3718 3679 3679 3640 3602 3565 3565 3565 3565 3565 3565 3528 3528 3528 3493 3423 3423 3423 3390 3390 3423 3390 3390 3390 3390 3357 3357 3324 3324 3324 3324 3262 3262 3262 3231 3231 3231 3201 3201 3201 3201 3201 3201 3201 3172 3201 3201
    0 0 0 0 0 0 0 0 0 0 0 0 0 0 0 0 0 0 0 0 0 0 0 0 0 0 0 0 0 0 0 0 0 0 0 0 0 0 0 0 0 0 0 0 0 0 0 0 0 0 0 0 0 0 0 0 0 0 0 0 0 0 0 0 0 0 0 0 0 0 0 0 0 0 0 0 0 0 0 0 0 0 0 0 0 0 0 0 0 0 0 0 0 0 0 0 0 2187 2201 2201 2201 2201 2201 2201 2201 2215 2215 2215 2230 2230 2244 2244 2259 2259 2259 2259 2259 0 0 2680 2680 0 2659 2659 2659 2659 2639 2659 2659 2659 2659 2659 0 3565 0 3565 3565 3602 3602 3602 3640 3640 3640 3640 3679 3640 3640 3640 3640 3640 3640 3640 3640 3640 3640 3640 3679 3679 3679 3679 3679 3679 3679 3679 3679 3679 3640 3640 3640 3640 3640 3679 3640 3640 3679 3679 3679 3679 3679 3679 3679 3679 3679 3679 3679 3679 3679 3679 3679 3679 3679 3679 3679 3679 3679 3679 3679 3679 3679 3679 3718 3718 3718 3718 3718 3718 3718 3718 3759 3718 3718 3718 3718 3718 3718 3679 3679 3718 3679 3679 3679 3679 3718 3718 3718 3718 3759 3718 3759 3759 3759 3718 3759 3759 3718 3718 3759 3759 3759 3759 3759 3759 3759 3759 3759 3759 3759 3800 3800 3800 3759 3759 3759 3759 3759 3800 3800 3800 3800 3800 3800 3800 3800 3800 3800 3800 3800 3800 3800 3800 3800 3800 3800 3800 3800 3800 3842 3842 3800 3800 3800 3800 3800 3800 3800 3800 3800 3842 3842 3842 3842 3842 3842 3842 3885 3842 3842 3842 3842 3842 3842 3842 3842 3842 3842 3842 3842 3842 3885 3842 3842 3842 3885 3842 3842 3885 3885 3885 3885 3930 3885 3885 3885 3885 3930 3930 3930 3930 3930 625 628 628 629 629 629 630 630 630 631 631 631 632 632 632 632 634 635 636 636 636 637 638 638 639 639 639 639 641 641 641 642 643 644 645 647 648 648 649 649 649 650 650 650 651 653 653 654 654 655 655 656 658 659 660 660 660 661 661 661 663 663 664 665 667 665 667 668 669 670 670 672 673 673 673 674 674 674 676 676 676 676 677 678 680 680 682 684 685 685 686 686 686 688 688 689 689 689 691 691 691 692 693 693 695 696 696 696 698 699 699 700 700 702 702 0 0 0 0 0 0 0 0 0 0 0 0 0 0 0 0 0 0 0 0 0 0 0 0 0 0 0 0 0 0 0 0 0 0 0 0 0 0 0 0 0 0 0 0 0 4021 4021 4021 3975 3975 3930 3930 3930 3930 3930 3930 3975 3975 4021 3975 3975 3930 3930 3930 3930 3930 3930 3930 3930 3930 3930 3930 3930 3930 3975 3975 4021 4021 4021 4021 4021 4021 4021 3975 3975 3975 3975 3975 3930 3930 3930 3975 3975 3975 3975 3975 3930 3975 3975 3975 3975 3975 3975 4021 4021 4021 4021 4021 4021 4021 4021 4021 4021 4021 4021 4021 4021 4021 3975 4021 4021 3975 4021 4021 4021 4021 4021 4021 3975 3975 3930 3930 3930 3885 3885 3885 3885 3885 3842 3842 3800 3800 3759 3759 3759 3759 3718 3718 3718 3718 3679 3679 3640 3602 3565 3565 3565 3565 3528 3565 3528 3528 3528 3493 3423 3423 3423 3423 3423 3423 3423 3423 3423 3390 3390 3357 3324 3324 3324 3324 3293 3262 3262 3231 3231 3231 3231 3201 3201 3201 3201 3231 3231 3201 3201 3201
    0 0 0 0 0 0 0 0 0 0 0 0 0 0 0 0 0 0 0 0 0 0 0 0 0 0 0 0 0 0 0 0 0 0 0 0 0 0 0 0 0 0 0 0 0 0 0 0 0 0 0 0 0 0 0 0 0 0 0 0 0 0 0 0 0 0 0 0 0 0 0 0 0 0 0 0 0 0 0 0 0 0 0 0 0 0 0 0 0 0 0 0 0 0 0 0 0 2187 2187 2187 2201 2201 2201 2201 2201 2215 2215 2215 2230 2230 2244 2244 2259 2259 2259 2259 2259 2244 0 2680 2680 2659 2659 2659 2659 2659 2639 2639 2659 2659 2659 2659 0 3565 3565 3565 3565 3602 3602 3602 3602 3640 3640 3640 3640 3640 3640 3640 3640 3640 3640 3640 3640 3640 3640 3640 3679 3679 3679 3679 3679 3679 3679 3679 3679 3679 3640 3640 3640 3640 3640 3640 3640 3640 3640 3640 3640 3679 3679 3679 3679 3679 3679 3679 3679 3679 3679 3679 3679 3679 3679 3679 3679 3679 3679 3679 3679 3679 3679 3679 3718 3718 3718 3718 3718 3718 3718 3718 3759 3718 3718 3718 3718 3718 3718 3679 3679 3718 3679 3679 3679 3679 3679 3718 3718 3718 3759 3718 3759 3759 3759 3718 3759 3759 3759 3759 3759 3759 3759 3759 3759 3759 3759 3759 3759 3800 3759 3759 3800 3759 3718 3718 3718 3718 3759 3759 3759 3800 3800 3800 3800 3800 3800 3800 3800 3800 3800 3800 3800 3800 3800 3800 3800 3800 3800 3800 3800 3800 3800 3800 3800 3800 3800 3800 3800 3800 3800 3842 3842 3842 3842 3842 3842 3842 3842 3842 3842 3842 3842 3842 3842 3842 3842 3842 3842 3842 3842 3885 3885 3842 3842 3842 3842 3842 3842 3885 3885 3885 3885 3930 3885 3885 3885 3930 3930 3930 3930 3930 3930 625 627 627 627 627 629 629 630 630 630 631 631 631 632 632 632 634 635 635 636 636 636 637 638 638 639 639 639 641 641 641 642 643 644 645 647 647 648 648 649 649 649 650 650 650 651 651 653 654 654 655 655 656 658 659 660 660 660 661 661 661 663 664 665 665 665 667 668 669 670 670 670 672 672 672 673 674 674 674 676 676 676 677 678 678 680 681 682 684 685 686 686 686 686 688 688 689 689 689 691 691 692 693 693 695 696 696 696 698 699 699 699 700 700 702 702 702 702 703 706 0 0 0 0 0 0 0 0 0 0 0 0 0 0 0 0 0 0 0 0 0 0 0 0 0 0 0 0 0 0 0 0 0 0 0 0 0 0 0 0 0 4021 0 3975 3930 3930 3930 3930 3930 3930 3930 3930 3975 4021 3975 3975 3930 3930 3975 3975 3975 3975 3930 3975 3975 3975 3975 3975 3975 3975 4021 4021 4021 4068 4021 4021 4021 4021 3975 3975 3975 3975 3930 3930 3885 3930 3930 3975 3975 3975 3930 3930 3975 3930 3930 3930 3975 3975 3975 4021 4021 4021 4021 4021 4021 4021 4021 4021 4068 4021 4068 4068 4021 3975 4021 3975 3975 4021 4021 4021 4021 4021 4021 4021 4021 3975 3930 3930 3930 3885 3885 3885 3885 3842 3842 3800 3759 3759 3759 3718 3718 3718 3718 3718 3718 3679 3679 3640 3602 3565 3565 3528 3528 3528 3528 3528 3528 3493 3493 3458 3423 3423 3423 3423 3458 3423 3423 3423 3423 3390 3390 3324 3324 3324 3324 3262 3262 3262 3231 3231 3231 3231 3201 3201 3201 3201 3231 3231 3201 3201 3201
    0 0 0 0 0 0 0 0 0 0 0 0 0 0 0 0 0 0 0 0 0 0 0 0 0 0 0 0 0 0 0 0 0 0 0 0 0 0 0 0 0 0 0 0 0 0 0 0 0 0 0 0 0 0 0 0 0 0 0 0 0 0 0 0 0 0 0 0 0 0 0 0 0 0 0 0 0 0 0 0 0 0 0 0 0 0 0 0 0 0 0 0 0 0 0 0 0 2187 2187 2187 2201 2201 2201 2201 2201 2201 2215 2215 2215 2230 2244 2259 2259 2259 2259 2259 2259 2701 2701 2680 2680 2659 2659 2659 2659 2659 2659 2659 2659 2659 2659 2659 0 3565 3565 3602 3602 3602 3602 3602 3602 3602 3640 3602 3640 3640 3640 3640 3640 3640 3640 3640 3640 3640 3640 3640 3679 3679 3679 3679 3679 3679 3679 3679 3640 3640 3640 3602 3602 3602 3602 3602 3602 3640 3640 3679 3640 3679 3679 3679 3679 3679 3679 3679 3679 3679 3679 3679 3679 3679 3679 3679 3679 3679 3679 3679 3679 3679 3679 3679 3679 3718 3718 3718 3718 3718 3718 3718 3718 3718 3718 3718 3718 3718 3718 3679 3679 3679 3640 3679 3679 3679 3679 3718 3679 3718 3718 3718 3718 3718 3718 3718 3718 3718 3718 3759 3759 3759 3759 3759 3759 3759 3759 3759 3759 3759 3759 3759 3759 3759 3718 3718 3718 3718 3759 3759 3759 3800 3800 3800 3800 3800 3800 3800 3800 3800 3800 3800 3800 3800 3800 3800 3800 3800 3800 3800 3800 3800 3800 3800 3800 3800 3800 3800 3800 3800 3800 3842 3842 3842 3842 3842 3842 3842 3842 3842 3842 3800 3842 3800 3842 3842 3842 3842 3842 3842 3842 3842 3842 3842 3842 3842 3885 3842 3885 3885 3885 3885 3885 3930 3885 3885 3885 3885 3930 3930 3930 3930 3930 625 625 627 627 627 628 629 630 630 630 630 631 631 632 632 632 634 634 635 635 636 636 637 637 638 638 639 639 639 639 641 641 643 644 645 645 647 647 648 648 649 649 649 650 650 650 651 651 653 654 655 655 656 658 659 659 660 660 660 660 661 661 663 664 665 665 665 667 668 669 669 670 670 670 670 672 673 673 674 674 674 676 676 677 678 678 681 681 684 684 685 686 685 686 686 688 689 689 689 691 691 692 692 693 695 695 696 696 698 698 698 699 700 700 702 702 702 702 703 706 706 708 708 708 708 0 0 0 0 0 0 0 0 0 0 0 0 0 0 0 0 0 0 0 0 0 0 0 0 0 0 0 0 0 0 0 0 0 0 0 0 0 0 0 0 3930 3930 3930 3930 3930 3930 3930 3930 3975 3975 3930 3930 3930 3975 3975 3975 3975 3975 3975 3975 3975 3975 3975 3975 3975 4021 4021 4021 4068 3975 4021 4021 3975 3975 3930 3930 3930 3930 3885 3885 3930 3930 3975 3975 3975 3930 3930 3930 3930 3930 3930 3975 3975 3975 4021 4021 4021 4021 4021 4021 4021 4021 4021 4068 4068 4068 4068 4021 3975 3975 3975 3975 3975 3975 3975 4021 4021 4021 4021 4021 3975 3930 3930 3930 3885 3885 3885 3885 3842 3842 3800 3759 3718 3718 3718 3718 3718 3718 3718 3718 3679 3679 3640 3602 3565 3565 3528 3528 3528 3528 3528 3528 3493 3458 3423 3423 3423 3423 3423 3423 3458 3423 3423 3423 3390 3390 3357 3324 3324 3324 3293 3262 3262 3231 3231 3231 3201 3172 3172 3172 3201 3201 3201 3172 3201 3201
    0 0 0 0 0 0 0 0 0 0 0 0 0 0 0 0 0 0 0 0 0 0 0 0 0 0 0 0 0 0 0 0 0 0 0 0 0 0 0 0 0 0 0 0 0 0 0 0 0 0 0 0 0 0 0 0 0 0 0 0 0 0 0 0 0 0 0 0 0 0 0 0 0 0 0 0 0 0 0 0 0 0 0 0 0 0 0 0 0 0 0 0 0 0 0 0 0 2187 2187 2187 2201 2201 2201 2201 2201 2201 2215 2215 2215 2230 2244 2259 2259 2259 2259 2259 2259 2680 2680 2680 2680 2680 2659 2659 2659 2659 2659 2659 2659 2659 2659 2680 0 3565 3565 3602 3602 3602 3602 3602 3602 3602 3602 3602 3640 3640 3640 3640 3640 3640 3640 3640 3640 3640 3640 3640 3679 3679 3679 3679 3679 3679 3679 3640 3640 3640 3640 3602 3602 3602 3602 3602 3602 3640 3640 3640 3640 3679 3679 3679 3679 3679 3679 3679 3679 3679 3679 3679 3679 3679 3679 3679 3679 3679 3640 3679 3679 3679 3679 3679 3679 3718 3718 3718 3718 3718 3718 3718 3718 3718 3718 3718 3718 3718 3718 3679 3679 3679 3640 3679 3679 3679 3679 3718 3679 3679 3718 3718 3718 3718 3718 3718 3718 3718 3718 3718 3718 3759 3759 3759 3759 3759 3759 3759 3759 3759 3759 3759 3800 3759 3718 3718 3718 3718 3759 3759 3759 3759 3759 3800 3800 3800 3800 3800 3800 3800 3800 3800 3800 3800 3800 3800 3800 3800 3800 3800 3800 3800 3800 3800 3800 3800 3800 3800 3800 3800 3800 3842 3842 3842 3842 3842 3842 3842 3842 3800 3842 3800 3800 3800 3842 3842 3842 3842 3842 3842 3842 3842 3842 3842 3842 3842 3885 3842 3885 3885 3885 3885 3885 3885 3885 3885 3885 3885 3885 3930 3930 3930 624 625 625 625 627 627 628 628 629 630 630 630 631 631 632 631 632 632 634 635 635 635 636 637 637 638 638 639 639 639 641 641 642 643 644 644 645 645 645 647 648 648 649 649 649 650 650 650 651 653 653 654 655 655 656 659 659 660 660 660 660 660 661 661 664 664 664 665 667 668 669 669 669 669 670 670 672 673 673 674 674 674 674 676 677 677 678 680 681 682 684 685 685 685 686 686 688 688 689 689 689 691 691 692 693 695 695 696 696 696 698 698 699 700 700 700 702 702 702 703 705 706 708 708 708 708 709 0 0 0 0 0 0 0 0 0 0 0 0 0 0 0 0 0 0 0 0 0 0 0 0 0 0 0 0 0 0 0 0 0 0 0 0 0 0 0 0 0 0 0 3885 3885 3930 3930 3930 3930 3930 3930 3930 3975 3975 3975 4021 4068 4068 3975 3975 3975 3975 3975 3975 4021 4021 4021 4021 3975 4021 3975 3975 3930 3930 3930 3930 3930 3885 3885 3885 3930 3975 3975 3930 3930 3930 3930 3930 3930 3930 3975 3975 3975 4021 4021 4021 4021 4021 4021 4021 4021 4021 4021 4021 4021 4021 3975 3975 3930 3930 3930 3930 3975 3975 4021 4021 4021 4021 4021 3975 3930 3930 3930 3885 3885 3885 3885 3842 3842 3800 3759 3718 3718 3718 3718 3679 3718 3718 3718 3679 3679 3679 3602 3565 3565 3565 3528 3528 3528 3528 3493 3493 3458 3423 3423 3423 3423 3423 3423 3423 3423 3423 3423 3390 3390 3324 3324 3324 3324 3293 3293 3262 3231 3231 3231 3201 3201 3172 3143 3201 3172 3201 3172 3172 3172
    0 0 0 0 0 0 0 0 0 0 0 0 0 0 0 0 0 0 0 0 0 0 0 0 0 0 0 0 0 0 0 0 0 0 0 0 0 0 0 0 0 0 0 0 0 0 0 0 0 0 0 0 0 0 0 0 0 0 0 0 0 0 0 0 0 0 0 0 0 0 0 0 0 0 0 0 0 0 0 0 0 0 0 0 0 0 0 0 0 0 0 0 0 0 0 0 2174 2174 2187 2187 2187 2201 2201 2201 2201 2201 2215 2215 2215 2230 2230 2244 2244 2259 2259 2259 2259 2244 2659 2680 2680 2680 2659 2659 2659 2659 2659 2659 2659 2659 2659 2680 0 3565 3565 3602 3565 3602 3602 3602 3565 3602 3602 3602 3602 3602 3602 3640 3640 3640 3640 3640 3640 3640 3640 3640 3679 3679 3679 3640 3640 3679 3640 3640 3640 3640 3640 3640 3640 3602 3602 3602 3602 3640 3640 3679 3679 3679 3679 3679 3679 3679 3679 3679 3679 3679 3679 3679 3679 3679 3679 3679 3679 3679 3640 3679 3679 3679 3679 3679 3679 3679 3679 3679 3679 3718 3718 3718 3718 3718 3718 3718 3718 3718 3718 3679 3679 3679 3640 3679 3679 3679 3679 3718 3679 3679 3679 3679 3679 3679 3679 3679 3718 3718 3718 3718 3718 3718 3718 3718 3718 3718 3759 3759 3759 3759 3759 3759 3759 3759 3718 3718 3718 3718 3759 3759 3759 3759 3759 3759 3759 3800 3800 3800 3800 3800 3800 3800 3800 3800 3800 3800 3800 3800 3800 3800 3800 3800 3800 3800 3800 3800 3800 3800 3800 3800 3800 3842 3842 3842 3842 3842 3800 3800 3842 3800 3800 3800 3800 3800 3800 3842 3842 3842 3842 3842 3842 3842 3842 3842 3842 3842 3885 3842 3885 3885 3885 3885 3885 3885 3842 3842 3885 3885 3885 3930 3930 3930 624 624 624 625 625 627 627 628 629 629 630 630 631 631 631 631 631 632 632 634 635 635 636 636 637 637 638 639 639 639 641 641 642 643 644 644 645 645 645 647 648 648 648 649 649 649 650 650 651 651 653 654 654 655 656 658 659 659 659 660 660 660 660 661 661 663 664 665 665 667 668 668 669 669 670 670 670 672 673 673 674 674 674 676 676 677 678 680 680 681 682 684 685 684 685 685 686 688 689 689 689 691 691 692 693 693 695 695 696 696 696 698 699 700 700 700 702 702 702 703 705 706 706 708 708 708 709 711 0 0 0 0 0 0 0 0 0 0 0 0 0 0 0 0 0 0 0 0 0 0 0 0 0 0 0 0 0 0 0 0 0 0 0 0 0 0 0 0 0 0 0 0 0 0 0 3930 3930 3930 3930 3975 3975 3975 4021 4021 4021 4021 3975 3975 3975 3975 3975 4021 4021 4021 4021 3975 4021 3975 3975 3930 3930 3930 3885 3930 3885 3885 3885 3885 3930 3930 3930 3930 3930 3975 3930 3930 3930 3930 3930 3975 4021 4021 4021 4021 3975 3975 4021 4021 4021 4021 4021 4021 4021 3975 3975 3930 3930 3930 3930 3975 3930 3975 3975 4021 4021 3975 3975 3930 3930 3930 3885 3885 3885 3885 3885 3842 3800 3759 3759 3718 3718 3718 3679 3679 3679 3679 3679 3679 3640 3602 3602 3565 3565 3565 3528 3528 3528 3493 3493 3458 3423 3423 3423 3423 3423 3423 3458 3423 3423 3423 3423 3390 3357 3324 3324 3324 3293 3262 3262 3231 3231 3231 3201 3201 3172 3143 3172 3143 3172 3143 3143 3143
    0 0 0 0 0 0 0 0 0 0 0 0 0 0 0 0 0 0 0 0 0 0 0 0 0 0 0 0 0 0 0 0 0 0 0 0 0 0 0 0 0 0 0 0 0 0 0 0 0 0 0 0 0 0 0 0 0 0 0 0 0 0 0 0 0 0 0 0 0 0 0 0 0 0 0 0 0 0 0 0 0 0 0 0 0 0 0 0 0 0 0 0 0 0 0 0 0 2187 2187 2201 2201 2201 2201 2201 2215 2215 2215 2215 2215 2230 2230 2244 2244 2259 2259 2259 2259 2659 2659 2680 2680 2680 2659 2659 2680 2659 2659 2659 2680 2659 2659 2680 3565 3565 3565 3602 3565 3602 3565 3565 3565 3565 3565 3565 3602 3602 3602 3640 3640 3640 3640 3640 3640 3640 3640 3640 3640 3640 3640 3640 3640 3640 3640 3640 3640 3640 3640 3640 3640 3640 3602 3602 3602 3640 3640 3640 3679 3679 3679 3679 3679 3679 3679 3679 3679 3679 3679 3679 3679 3679 3679 3679 3679 3640 3640 3679 3679 3679 3679 3679 3679 3679 3679 3679 3679 3679 3718 3718 3718 3718 3718 3718 3718 3679 3679 3679 3679 3679 3640 3679 3679 3679 3679 3718 3679 3679 3679 3679 3679 3679 3679 3679 3679 3679 3679 3718 3718 3718 3718 3718 3718 3718 3718 3759 3718 3718 3718 3718 3718 3759 3718 3718 3718 3718 3759 3759 3759 3759 3759 3759 3759 3800 3800 3800 3800 3800 3800 3800 3800 3800 3800 3800 3800 3800 3800 3800 3800 3800 3800 3800 3800 3800 3800 3800 3800 3800 3800 3800 3800 3800 3842 3842 3800 3800 3800 3800 3800 3800 3800 3800 3800 3842 3842 3842 3842 3842 3842 3842 3842 3842 3842 3842 3842 3842 3842 3885 3885 3885 3885 3885 3842 3842 3842 3842 3885 3885 3930 3930 624 624 624 625 625 625 627 628 628 629 629 630 631 631 631 631 631 632 632 632 634 635 635 636 636 637 637 638 639 639 639 641 641 642 643 644 645 645 645 645 647 648 648 649 649 649 650 650 650 651 651 653 654 654 655 658 658 659 659 659 659 660 660 660 661 663 664 664 665 667 668 668 669 669 669 670 670 672 672 673 674 674 674 676 676 677 677 678 680 680 681 684 684 684 685 685 685 686 688 689 689 689 691 692 692 693 695 695 695 696 696 696 699 699 700 700 700 702 702 703 705 705 706 708 708 708 709 711 711 712 712 713 0 0 0 0 0 0 0 0 0 0 0 0 0 0 0 0 0 0 0 0 0 0 0 0 0 0 0 0 0 0 0 0 0 0 0 0 0 0 0 0 0 0 0 0 0 3930 3930 3930 3975 4021 4021 4021 4021 4021 3975 3975 3975 3975 3975 3975 3975 3975 4021 3930 3975 3930 3930 3930 3885 3930 3930 3930 3885 3885 3885 3885 3930 3930 3930 3930 3930 3975 3930 3930 3930 3975 3975 3975 3975 3975 3975 3975 3930 3930 3975 3975 3975 3975 3975 3975 4021 3975 3975 3930 3930 3930 3930 3975 3975 3975 3975 4021 3975 3975 3975 3930 3930 3885 3885 3885 3885 3885 3885 3842 3800 3759 3718 3718 3718 3679 3679 3679 3679 3679 3679 3640 3640 3602 3602 3565 3565 3528 3528 3528 3528 3493 3493 3493 3423 3423 3423 3423 3423 3423 3458 3423 3423 3423 3423 3390 3324 3324 3324 3324 3262 3262 3262 3231 3231 3231 3231 3231 3201 3172 3172 3143 3143 3143 3143 3143
    0 0 0 0 0 0 0 0 0 0 0 0 0 0 0 0 0 0 0 0 0 0 0 0 0 0 0 0 0 0 0 0 0 0 0 0 0 0 0 0 0 0 0 0 0 0 0 0 0 0 0 0 0 0 0 0 0 0 0 0 0 0 0 0 0 0 0 0 0 0 0 0 0 0 0 0 0 0 0 0 0 0 0 0 0 0 0 0 0 0 0 0 0 0 0 0 2187 2187 2187 2187 2201 2201 2201 2201 2215 2215 2215 2215 2215 2230 2230 2244 2244 2259 2259 2259 2259 2680 2680 2680 2680 2680 2659 2659 2659 2659 2659 2659 2659 2659 2659 2659 3565 3565 3565 3565 3565 3565 3565 3565 3565 3565 3565 3565 3602 3602 3602 3640 3640 3640 3640 3640 3640 3640 3640 3640 3640 3640 3640 3640 3640 3640 3640 3640 3640 3640 3640 3640 3602 3602 3602 3602 3602 3640 3640 3640 3679 3679 3679 3679 3679 3679 3679 3679 3679 3679 3679 3679 3679 3679 3679 3679 3679 3679 3679 3679 3679 3679 3679 3679 3679 3679 3679 3679 3679 3679 3718 3718 3718 3718 3718 3718 3718 3718 3679 3679 3679 3679 3640 3679 3679 3679 3679 3679 3679 3679 3679 3679 3679 3679 3679 3679 3679 3679 3679 3679 3679 3718 3718 3718 3718 3718 3718 3759 3718 3718 3718 3718 3759 3759 3718 3718 3759 3759 3759 3759 3759 3759 3759 3759 3759 3759 3800 3800 3800 3800 3800 3800 3800 3800 3800 3800 3800 3800 3800 3800 3800 3800 3800 3800 3800 3800 3800 3800 3800 3800 3800 3800 3800 3800 3800 3800 3800 3800 3800 3800 3800 3800 3800 3800 3800 3842 3842 3842 3842 3842 3842 3842 3842 3842 3842 3842 3842 3842 3842 3885 3885 3885 3885 3885 3842 3842 3842 3842 3842 3842 3885 3885 623 624 624 625 625 625 627 627 628 628 629 629 630 630 631 631 631 631 632 632 634 635 635 636 636 636 637 638 639 639 639 641 641 642 643 643 644 644 644 645 647 647 648 649 649 649 649 650 650 650 650 651 653 654 655 656 658 659 659 659 659 659 660 660 660 661 663 664 665 667 667 668 669 669 669 669 670 670 672 673 674 674 674 676 676 677 677 678 678 680 681 681 682 682 684 684 685 685 686 688 688 689 689 691 692 692 693 693 695 695 696 696 698 699 699 700 700 700 702 702 703 705 706 708 708 708 709 711 711 712 712 713 713 715 716 716 718 718 0 0 0 0 0 0 0 0 0 0 0 0 0 0 0 0 0 0 0 0 0 0 0 0 0 0 0 0 0 0 0 0 0 0 0 0 0 0 0 0 3885 3930 3975 4021 4021 4021 4068 4068 4021 3975 3975 3975 3975 3975 3975 3975 3975 3930 3930 3930 3930 3930 3885 3930 3930 3930 3930 3885 3930 3930 3930 3975 3930 3930 3975 3975 3930 3930 3930 3930 3930 3975 3975 3975 3975 3975 3930 3930 3930 3930 3930 3975 3975 3975 4021 3975 3975 3930 3930 3930 3885 3930 3930 3975 3975 3975 3975 3930 3975 3930 3930 3885 3885 3885 3885 3885 3842 3842 3842 3800 3759 3718 3718 3718 3679 3679 3679 3679 3640 3640 3602 3602 3565 3565 3565 3528 3528 3528 3528 3528 3528 3528 3458 3423 3423 3423 3423 3458 3458 3423 3423 3423 3458 3423 3357 3357 3324 3324 3293 3262 3262 3262 3231 3231 3231 3231 3201 3172 3172 3143 3143 3143 3143 3143
    0 0 0 0 0 0 0 0 0 0 0 0 0 0 0 0 0 0 0 0 0 0 0 0 0 0 0 0 0 0 0 0 0 0 0 0 0 0 0 0 0 0 0 0 0 0 0 0 0 0 0 0 0 0 0 0 0 0 0 0 0 0 0 0 0 0 0 0 0 0 0 0 0 0 0 0 0 0 0 0 0 0 0 0 0 0 0 0 0 0 0 0 0 0 0 2187 2187 2187 2187 2187 2187 2201 2201 2201 2201 2201 2215 2215 2215 2230 2230 2230 2244 2259 2259 2259 2259 2680 2680 2680 2680 2680 2680 2659 2659 2659 2659 2659 2659 2659 2659 2659 3565 3565 3565 3565 3565 3565 3565 3565 3565 3565 3565 3565 3602 3602 3602 3640 3640 3640 3640 3640 3640 3640 3640 3640 3640 3640 3602 3602 3640 3640 3640 3640 3640 3640 3640 3602 3602 3602 3602 3602 3602 3640 3640 3679 3679 3679 3679 3679 3679 3679 3679 3640 3640 3640 3640 3640 3640 3679 3679 3679 3679 3679 3679 3679 3679 3679 3679 3679 3679 3679 3679 3679 3679 3679 3679 3679 3679 3718 3718 3718 3718 3718 3679 3679 3679 3679 3640 3640 3679 3679 3679 3679 3679 3679 3679 3679 3679 3679 3679 3679 3679 3679 3679 3718 3679 3718 3718 3718 3718 3718 3718 3718 3718 3718 3718 3718 3759 3759 3759 3718 3718 3718 3759 3759 3759 3718 3759 3759 3759 3759 3759 3800 3800 3800 3800 3800 3800 3800 3800 3800 3800 3800 3800 3800 3800 3800 3800 3800 3800 3800 3800 3800 3800 3800 3800 3800 3800 3800 3800 3800 3800 3800 3800 3800 3800 3800 3800 3800 3842 3842 3842 3842 3842 3842 3842 3842 3842 3842 3842 3842 3842 3842 3842 3842 3885 3885 3885 3885 3842 3842 3842 3842 3842 3885 3885 3930 623 624 623 624 624 625 627 627 627 628 628 629 630 630 631 631 631 631 632 632 634 634 635 635 635 636 636 637 638 638 639 639 641 642 643 643 644 644 644 644 645 647 647 648 648 649 649 650 650 650 650 651 653 653 654 656 658 658 658 659 659 659 659 660 660 661 661 663 664 665 665 667 668 668 669 669 669 670 670 672 673 673 674 676 676 676 677 678 678 680 680 681 681 681 682 682 684 684 685 686 686 686 688 689 691 691 692 693 693 695 695 696 696 698 699 699 700 700 700 702 703 705 706 706 708 708 709 709 711 711 712 712 713 715 716 716 718 718 719 718 718 718 0 0 0 0 0 0 0 0 0 0 0 0 0 0 0 0 0 0 0 0 0 0 0 0 0 0 0 0 0 0 0 0 0 0 0 0 3930 3930 3975 4068 4021 4021 4068 4021 3975 3975 3930 3930 3930 3930 3930 3930 3930 3885 3930 3930 3930 3930 3930 3930 3930 3930 3930 3885 3930 3885 3930 3930 3930 3930 3930 3930 3930 3930 3930 3930 3930 3975 3975 3975 3975 3975 3885 3885 3930 3930 3930 3930 3975 3975 4021 3975 3975 3930 3930 3930 3885 3930 4021 4021 3975 3975 3975 3930 3930 3930 3885 3885 3885 3885 3885 3885 3842 3842 3800 3759 3718 3718 3718 3718 3679 3679 3640 3640 3640 3602 3602 3565 3565 3565 3565 3528 3528 3528 3528 3528 3528 3528 3493 3423 3423 3423 3423 3423 3423 3423 3458 3423 3458 3423 3390 3390 3357 3357 3293 3293 3262 3262 3262 3231 3231 3231 3231 3172 3172 3143 3143 3143 3143 3143
    0 0 0 0 0 0 0 0 0 0 0 0 0 0 0 0 0 0 0 0 0 0 0 0 0 0 0 0 0 0 0 0 0 0 0 0 0 0 0 0 0 0 0 0 0 0 0 0 0 0 0 0 0 0 0 0 0 0 0 0 0 0 0 0 0 0 0 0 0 0 0 0 0 0 0 0 0 0 0 0 0 0 0 0 0 0 0 0 0 0 0 0 0 0 2187 2187 2187 2187 2187 2187 2187 2187 2201 2201 2201 2201 2215 2215 2215 2215 2230 2230 2244 2244 2259 2259 2680 2680 2680 2680 2680 2680 2680 2659 2680 2680 2680 2680 2680 2659 2659 2659 3565 3565 3565 3565 3565 3565 3565 3565 3565 3565 3565 3602 3602 3602 3602 3602 3640 3640 3640 3640 3602 3602 3602 3602 3640 3602 3602 3640 3640 3640 3640 3640 3640 3640 3640 3640 3602 3602 3602 3602 3602 3640 3640 3640 3640 3679 3679 3679 3679 3679 3679 3640 3640 3640 3640 3640 3640 3679 3679 3640 3679 3679 3679 3679 3679 3679 3679 3679 3679 3679 3679 3679 3679 3679 3679 3679 3679 3718 3718 3718 3718 3718 3718 3718 3679 3679 3679 3679 3679 3679 3679 3679 3679 3679 3679 3679 3679 3679 3679 3679 3679 3679 3679 3718 3718 3718 3718 3718 3718 3718 3718 3718 3718 3718 3718 3718 3718 3718 3718 3718 3718 3718 3718 3759 3759 3718 3759 3759 3759 3759 3800 3800 3800 3800 3800 3800 3800 3800 3800 3800 3800 3800 3800 3800 3800 3800 3800 3800 3800 3800 3800 3800 3800 3800 3800 3800 3800 3800 3800 3800 3800 3800 3800 3800 3800 3800 3800 3800 3800 3842 3842 3842 3842 3842 3842 3842 3842 3842 3842 3842 3842 3842 3885 3885 3885 3885 3885 3885 3842 3842 3842 3842 3842 3842 3885 3885 624 624 622 624 624 625 625 627 627 628 628 629 629 630 630 630 631 631 631 632 632 634 634 635 635 636 636 637 638 638 638 639 639 641 642 642 643 643 643 644 645 645 645 647 648 648 649 649 650 650 650 651 653 653 654 655 656 658 658 659 659 659 659 660 660 661 661 663 663 664 665 667 668 668 669 669 669 670 670 672 672 673 674 674 676 676 676 677 678 680 680 681 681 680 681 681 682 684 685 685 685 685 686 689 689 691 692 692 693 693 695 695 696 696 696 698 699 699 700 700 702 703 705 706 706 708 709 709 711 711 712 712 713 713 715 716 716 718 718 718 718 718 718 0 0 0 0 0 0 0 0 0 0 0 0 0 0 0 0 0 0 0 0 0 0 0 0 0 0 0 0 0 0 0 0 0 0 0 0 0 0 0 0 4068 4068 4021 3975 3975 3930 3885 3930 3930 3930 3930 3930 3885 3885 3885 3885 3930 3885 3930 3930 3930 3885 3885 3885 3885 3885 3930 3930 3930 3930 3975 3975 3975 3975 3975 3930 3975 3975 3975 3930 3930 3885 3885 3885 3930 3930 3930 3975 3930 3975 3975 3975 3975 3975 3975 3930 4021 4021 4021 3975 3975 3930 3885 3930 3885 3885 3885 3885 3885 3885 3885 3842 3842 3842 3800 3718 3718 3718 3679 3679 3679 3640 3640 3640 3602 3602 3602 3565 3565 3565 3528 3528 3528 3528 3528 3528 3528 3493 3423 3423 3423 3423 3423 3423 3423 3458 3458 3493 3458 3423 3423 3390 3357 3293 3262 3231 3262 3231 3231 3231 3231 3201 3172 3172 3143 3143 3143 3143 3143
    0 0 0 0 0 0 0 0 0 0 0 0 0 0 0 0 0 0 0 0 0 0 0 0 0 0 0 0 0 0 0 0 0 0 0 0 0 0 0 0 0 0 0 0 0 0 0 0 0 0 0 0 0 0 0 0 0 0 0 0 0 0 0 0 0 0 0 0 0 0 0 0 0 0 0 0 0 0 0 0 0 0 0 0 0 0 0 0 0 0 0 0 0 0 2174 2187 2187 2187 2187 2187 2201 2187 2201 2201 2201 2201 2215 2215 2215 2215 2215 2230 2230 2244 2244 2259 2259 2680 2680 2680 2680 2680 2680 2659 2680 2680 2680 2680 2680 2680 2680 3565 3565 3565 3565 3565 3565 3565 3565 3565 3565 3565 3565 3602 3602 3602 3602 3602 3640 3640 3640 3640 3602 3602 3602 3602 3602 3602 3602 3640 3640 3640 3679 3640 3640 3640 3640 3640 3602 3602 3602 3602 3640 3640 3640 3679 3679 3679 3679 3679 3679 3640 3640 3640 3640 3640 3640 3640 3640 3679 3679 3679 3679 3679 3679 3679 3679 3679 3679 3679 3679 3679 3679 3679 3679 3679 3679 3679 3679 3718 3718 3718 3718 3718 3718 3718 3679 3679 3640 3640 3640 3679 3679 3679 3679 3679 3679 3679 3679 3679 3679 3679 3679 3679 3679 3679 3718 3718 3718 3718 3718 3718 3718 3718 3718 3718 3718 3718 3718 3759 3759 3718 3759 3718 3759 3759 3759 3759 3759 3759 3759 3759 3759 3759 3800 3800 3800 3800 3800 3800 3800 3759 3800 3800 3800 3800 3800 3800 3800 3800 3800 3800 3800 3800 3800 3800 3800 3800 3800 3800 3800 3800 3800 3800 3800 3800 3800 3800 3800 3800 3800 3842 3842 3842 3842 3842 3842 3842 3842 3842 3842 3842 3885 3842 3885 3885 3885 3885 3885 3885 3842 3842 3842 3800 3842 3842 3842 624 623 623 622 623 624 625 625 627 627 627 628 628 629 629 629 630 630 630 631 631 632 632 632 634 634 635 636 636 637 638 638 639 639 641 642 642 643 643 644 644 644 644 645 645 647 648 649 649 649 650 650 651 651 653 654 655 656 656 658 659 659 659 659 659 660 660 661 663 663 664 664 665 667 668 669 669 669 670 670 672 672 673 673 674 676 676 676 677 678 680 680 681 681 680 681 681 681 682 684 684 684 685 685 686 688 689 691 691 692 693 693 695 695 695 696 696 698 699 699 700 702 702 703 705 706 708 708 709 711 711 712 712 713 713 713 715 715 716 718 718 718 718 718 719 719 0 0 0 0 0 0 0 0 0 0 0 0 0 0 0 0 0 0 0 0 0 0 0 0 0 0 0 0 0 0 0 0 0 0 0 0 0 0 0 0 0 0 0 3885 3885 3885 3885 3885 3885 3885 3885 3885 3885 3885 3930 3930 3930 3930 3930 3930 3885 3885 3885 3885 3930 3930 3930 3930 3975 3975 3975 3975 3975 3930 3930 3930 3930 3885 3930 3885 3885 3885 3930 3930 3930 3975 3930 3975 3975 3975 3930 3930 3930 3930 3930 4021 4021 3930 3930 3885 3885 3885 3885 3885 3885 3885 3885 3842 3842 3842 3842 3800 3800 3718 3718 3718 3679 3679 3640 3640 3640 3602 3602 3565 3565 3565 3528 3528 3528 3565 3528 3528 3528 3528 3528 3493 3423 3423 3423 3423 3423 3423 3423 3458 3458 3458 3458 3458 3423 3423 3390 3293 3262 3231 3262 3231 3231 3231 3231 3231 3172 3172 3143 3143 3143 3143 3143
    0 0 0 0 0 0 0 0 0 0 0 0 0 0 0 0 0 0 0 0 0 0 0 0 0 0 0 0 0 0 0 0 0 0 0 0 0 0 0 0 0 0 0 0 0 0 0 0 0 0 0 0 0 0 0 0 0 0 0 0 0 0 0 0 0 0 0 0 0 0 0 0 0 0 0 0 0 0 0 0 0 0 0 0 0 0 0 0 0 0 0 0 0 0 2187 2187 2187 2187 2187 2187 2201 2187 2201 2201 2201 2215 2215 2215 2215 2215 2215 2215 2230 2230 2244 2244 2259 2701 2701 2680 2680 2680 2659 2659 2680 2680 2680 2680 2680 2680 3565 3565 3565 3565 3602 3565 3602 3602 3602 3602 3565 3565 3565 3602 3602 3602 3602 3602 3640 3640 3640 3640 3602 3602 3602 3602 3602 3602 3602 3602 3640 3640 3640 3640 3640 3640 3640 3640 3602 3602 3602 3640 3640 3640 3679 3679 3679 3679 3679 3679 3679 3640 3640 3640 3640 3640 3679 3679 3679 3679 3679 3679 3679 3679 3679 3679 3679 3679 3640 3679 3679 3679 3679 3679 3679 3679 3679 3679 3679 3718 3718 3718 3718 3718 3718 3679 3679 3679 3640 3640 3640 3679 3679 3679 3679 3679 3679 3679 3679 3679 3679 3679 3679 3679 3679 3679 3679 3718 3718 3679 3718 3679 3718 3718 3718 3718 3718 3718 3718 3759 3759 3718 3759 3718 3759 3759 3759 3718 3759 3759 3759 3759 3759 3759 3759 3800 3800 3759 3800 3800 3759 3759 3759 3759 3800 3800 3800 3800 3800 3800 3800 3800 3800 3800 3800 3800 3800 3800 3800 3800 3800 3800 3800 3800 3800 3800 3800 3800 3800 3800 3800 3842 3842 3842 3842 3842 3842 3842 3842 3842 3842 3842 3842 3842 3842 3885 3885 3885 3885 3885 3842 3842 3842 3800 3842 3842 3842 624 623 623 622 623 624 624 625 625 627 627 628 628 628 629 629 629 630 630 630 631 631 631 632 634 634 635 635 636 637 638 638 638 639 639 641 642 642 643 643 644 644 644 645 645 647 647 648 649 649 649 650 650 651 651 654 655 656 656 656 658 659 659 659 659 660 660 661 663 663 664 664 665 667 668 669 669 669 670 670 670 672 672 673 674 674 676 676 677 677 678 680 681 681 680 681 681 681 681 682 684 684 684 685 686 686 688 689 691 691 692 692 693 693 695 696 696 696 698 699 699 700 702 702 705 706 706 708 709 711 711 711 712 712 713 713 715 715 716 716 718 718 718 718 719 719 721 721 722 722 725 725 0 0 0 0 0 0 0 0 0 0 0 0 0 0 0 0 0 0 0 0 0 0 0 0 0 0 0 0 0 0 0 0 0 0 0 0 0 0 0 0 0 3885 3885 3885 3885 3885 3885 3885 3930 3930 3930 3930 3930 3930 3885 3885 3885 3885 3930 3975 3975 3975 3975 3975 3975 3975 3975 3930 3930 3930 3930 3885 3885 3885 3885 3885 3930 3885 3930 3930 3885 3930 3930 3930 3885 3885 3930 3885 3930 3930 3930 3930 3930 3930 3885 3885 3885 3885 3885 3842 3842 3842 3842 3842 3800 3842 3800 3759 3718 3718 3718 3679 3640 3640 3640 3602 3602 3565 3565 3565 3565 3565 3565 3565 3528 3528 3528 3528 3528 3493 3458 3423 3423 3423 3423 3423 3423 3458 3458 3458 3458 3458 3423 3423 3390 3293 3262 3231 3262 3231 3231 3231 3231 3231 3201 3201 3172 3172 3143 3143 3143
    0 0 0 0 0 0 0 0 0 0 0 0 0 0 0 0 0 0 0 0 0 0 0 0 0 0 0 0 0 0 0 0 0 0 0 0 0 0 0 0 0 0 0 0 0 0 0 0 0 0 0 0 0 0 0 0 0 0 0 0 0 0 0 0 0 0 0 0 0 0 0 0 0 0 0 0 0 0 0 0 0 0 0 0 0 0 0 0 0 0 0 0 0 0 2174 2174 2174 2187 2187 2187 2201 2201 2201 2201 2201 2201 2215 2201 2215 2215 2215 2215 2215 2230 2230 2244 2244 2244 2701 2680 2659 2659 2659 2659 2659 2659 2659 2659 2680 2680 0 3602 3602 3602 3602 3602 3602 3602 3602 3602 3565 3565 3565 3602 3602 3602 3602 3602 3602 3602 3602 3602 3602 3602 3602 3602 3602 3602 3602 3602 3640 3640 3640 3640 3640 3640 3640 3602 3602 3602 3640 3640 3640 3640 3679 3679 3679 3679 3679 3679 3640 3640 3640 3640 3640 3640 3640 3679 3679 3679 3679 3679 3679 3679 3679 3679 3679 3679 3679 3679 3679 3679 3679 3679 3679 3679 3679 3679 3679 3679 3718 3718 3718 3718 3679 3679 3679 3679 3640 3640 3640 3679 3679 3679 3679 3679 3679 3679 3679 3679 3679 3679 3679 3679 3679 3679 3718 3718 3718 3718 3718 3679 3718 3718 3718 3718 3718 3718 3718 3718 3718 3718 3718 3718 3718 3759 3759 3718 3759 3759 3759 3759 3759 3759 3759 3800 3800 3800 3800 3800 3800 3759 3800 3800 3800 3800 3800 3800 3800 3800 3800 3800 3800 3800 3800 3800 3800 3800 3759 3800 3800 3800 3800 3800 3800 3800 3800 3800 3800 3800 3800 3800 3842 3800 3842 3842 3842 3842 3842 3842 3842 3842 3842 3842 3842 3885 3885 3885 3885 3885 3842 3842 3800 3800 3800 3800 3800 3842 623 621 622 622 623 624 625 625 625 627 627 627 627 628 629 629 629 630 630 631 631 631 632 634 634 635 635 636 637 637 637 638 638 638 639 641 641 642 643 643 644 644 644 645 645 647 648 648 649 649 649 650 651 651 654 655 656 656 656 658 658 659 659 659 659 660 661 661 661 663 664 665 667 667 668 668 669 669 670 670 672 672 673 674 674 676 676 676 677 678 680 680 680 680 680 680 681 681 682 682 684 684 685 686 686 688 689 689 691 691 692 692 693 693 695 696 696 696 698 698 700 700 702 703 705 706 708 709 709 711 711 711 712 713 713 715 715 716 716 718 718 718 719 719 721 722 722 722 724 725 725 727 729 729 730 0 0 0 0 0 0 0 0 0 0 0 0 0 0 0 0 0 0 0 0 0 0 0 0 0 0 0 0 0 0 0 0 0 0 0 0 0 0 0 3885 3842 3842 3885 3885 3885 3885 3885 3930 3930 3930 3885 3885 3885 3885 3930 3975 3975 3975 3975 3975 3975 3975 3930 3930 3885 3885 3885 3885 3885 3885 3885 3930 3930 3930 3930 3975 3930 3930 3930 3930 3930 3930 3930 3930 3975 3975 3930 3930 3930 3930 3885 3885 3885 3885 3885 3885 3842 3842 3842 3842 3842 3842 3800 3800 3759 3759 3759 3718 3679 3640 3640 3602 3602 3565 3565 3565 3565 3565 3565 3565 3565 3565 3528 3528 3528 3458 3423 3423 3423 3423 3423 3423 3423 3458 3458 3458 3458 3458 3423 3423 3390 3293 3262 3262 3262 3231 3231 3231 3231 3231 3201 3201 3172 3172 3143 3143 3143
    0 0 0 0 0 0 0 0 0 0 0 0 0 0 0 0 0 0 0 0 0 0 0 0 0 0 0 0 0 0 0 0 0 0 0 0 0 0 0 0 0 0 0 0 0 0 0 0 0 0 0 0 0 0 0 0 0 0 0 0 0 0 0 0 0 0 0 0 0 0 0 0 0 0 0 0 0 0 0 0 0 0 0 0 0 0 0 0 0 0 0 0 0 2187 2174 2174 2174 2187 2187 2187 2201 2201 2201 2201 2201 2201 2215 2215 2215 2215 2215 2215 2230 2230 2244 2244 2244 2244 2680 2659 2639 2639 2639 2639 2659 2639 2659 2659 2659 2659 0 3640 3640 3602 3602 3602 3602 3602 3602 3565 3565 3565 3565 3602 3602 3602 3565 3565 3602 3602 3602 3602 3602 3602 3565 3602 3602 3602 3602 3602 3602 3640 3640 3640 3602 3640 3602 3602 3602 3602 3640 3640 3640 3640 3640 3679 3640 3640 3640 3640 3640 3602 3602 3640 3640 3640 3640 3640 3679 3679 3679 3679 3679 3679 3679 3679 3679 3679 3640 3679 3679 3679 3679 3679 3679 3679 3679 3679 3679 3679 3718 3718 3718 3718 3679 3679 3679 3679 3640 3640 3640 3679 3679 3679 3679 3679 3679 3679 3679 3679 3679 3718 3718 3718 3718 3718 3718 3718 3759 3718 3718 3718 3718 3718 3718 3718 3679 3718 3679 3718 3718 3718 3718 3718 3718 3759 3759 3759 3759 3759 3759 3759 3759 3759 3759 3800 3800 3800 3800 3800 3800 3759 3800 3800 3800 3800 3759 3759 3800 3800 3800 3800 3759 3759 3759 3759 3759 3759 3759 3800 3800 3800 3800 3800 3800 3800 3800 3800 3800 3800 3800 3842 3800 3800 3800 3842 3842 3842 3842 3842 3842 3842 3842 3842 3842 3885 3885 3885 3885 3885 3842 3842 3842 3800 3800 3800 3800 3842 623 623 622 622 623 624 625 625 625 625 627 627 627 628 628 628 629 630 630 630 631 631 632 632 634 634 635 635 636 637 637 637 638 638 639 639 641 641 642 643 643 644 644 645 645 647 647 648 648 648 649 649 650 650 651 654 655 655 655 656 656 658 658 659 659 660 661 661 661 663 664 665 665 665 667 668 669 669 669 670 670 672 672 673 674 674 676 676 677 678 678 680 680 678 680 680 680 681 682 682 684 684 685 685 686 686 688 689 689 691 691 691 692 693 695 695 695 696 696 698 699 699 700 702 703 705 706 708 709 709 711 711 712 713 713 713 715 715 716 718 718 718 719 719 719 721 721 722 724 724 725 725 727 729 730 730 732 0 0 0 0 0 0 0 0 0 0 0 0 0 0 0 0 0 0 0 0 0 0 0 0 0 0 0 0 0 0 0 0 0 0 0 0 0 0 3842 3842 3885 3885 3930 3930 3930 3930 3930 3930 3885 3885 3885 3885 3930 3975 3975 3975 3975 3975 3975 3975 3930 3885 3885 3885 3885 3885 3885 3885 3885 3930 3930 3930 3975 3975 3930 3930 3930 3930 3885 3885 3930 3930 3930 3975 3930 3885 3885 3885 3885 3885 3885 3842 3885 3842 3842 3842 3800 3842 3842 3842 3800 3800 3759 3759 3759 3718 3679 3640 3640 3602 3602 3565 3565 3528 3565 3565 3565 3565 3528 3565 3528 3528 3493 3458 3458 3423 3423 3423 3423 3423 3423 3423 3458 3458 3458 3458 3423 3423 3390 3324 3293 3262 3262 3231 3231 3231 3231 3231 3201 3201 3172 3172 3143 3143 3143
    0 0 0 0 0 0 0 0 0 0 0 0 0 0 0 0 0 0 0 0 0 0 0 0 0 0 0 0 0 0 0 0 0 0 0 0 0 0 0 0 0 0 0 0 0 0 0 0 0 0 0 0 0 0 0 0 0 0 0 0 0 0 0 0 0 0 0 0 0 0 0 0 0 0 0 0 0 0 0 0 0 0 0 0 0 0 0 0 0 0 0 0 0 2174 2174 2160 2160 2174 2174 2187 2187 2201 2201 2201 2201 2201 2215 2215 2215 2215 2215 2215 2230 2230 2230 2244 2244 2659 2659 2639 2639 2639 2619 2639 2639 2639 2639 2639 2639 0 0 3640 3640 3640 3602 3602 3640 3602 3602 3602 3602 3565 3602 3602 3565 3565 3565 3565 3565 3565 3602 3602 3602 3602 3565 3602 3602 3602 3602 3602 3602 3602 3640 3602 3602 3602 3602 3602 3602 3602 3602 3640 3640 3640 3640 3640 3640 3640 3640 3602 3602 3602 3602 3602 3640 3640 3640 3640 3679 3679 3679 3679 3679 3679 3679 3679 3679 3679 3640 3640 3679 3640 3679 3679 3679 3679 3679 3679 3679 3679 3718 3718 3718 3718 3679 3679 3679 3679 3640 3640 3679 3679 3679 3679 3679 3679 3679 3679 3679 3679 3679 3718 3718 3718 3718 3718 3718 3718 3718 3718 3718 3718 3718 3718 3718 3718 3718 3718 3718 3718 3718 3718 3718 3718 3718 3759 3718 3718 3759 3759 3759 3759 3759 3759 3759 3759 3800 3800 3800 3800 3800 3759 3800 3759 3759 3800 3759 3759 3759 3800 3800 3759 3759 3759 3759 3759 3759 3759 3759 3800 3800 3800 3800 3800 3800 3800 3800 3800 3800 3800 3800 3800 3800 3800 3800 3842 3842 3842 3842 3842 3842 3842 3842 3842 3842 3885 3885 3930 3930 3885 3842 3842 3842 3800 3800 3800 3800 3842 622 622 622 622 623 623 624 625 625 625 627 627 627 628 628 628 628 629 630 630 631 631 631 632 632 634 634 635 636 636 637 637 637 638 639 639 641 641 642 643 643 643 644 645 645 647 647 648 648 648 649 649 650 650 651 653 654 655 655 656 656 656 658 659 659 660 661 660 661 663 664 664 665 665 665 667 668 669 669 669 670 670 672 672 673 674 674 676 676 677 677 678 678 678 678 678 680 680 681 682 682 684 685 685 686 688 688 689 689 691 691 691 691 692 693 695 695 695 696 698 698 699 699 700 702 703 705 706 708 708 709 711 712 713 713 713 715 715 716 718 718 718 719 719 719 721 721 722 724 724 725 727 729 729 730 730 732 732 732 0 0 0 0 0 0 0 0 0 0 0 0 0 0 0 0 0 0 0 0 0 0 0 0 0 0 0 0 0 0 0 0 0 0 0 0 0 0 3885 0 3930 0 3930 3930 3930 3930 3885 3930 3885 3885 3930 3975 3975 3975 3975 3975 3975 3930 3930 3885 3885 3885 3885 3885 3885 3885 3885 3930 3975 3975 3975 3975 3975 3930 3930 3930 3930 3930 3930 3930 3975 3975 3930 3885 3885 3885 3885 3885 3885 3885 3885 3885 3842 3842 3800 3842 3842 3842 3800 3800 3759 3800 3800 3759 3679 3640 3640 3602 3565 3565 3565 3565 3565 3565 3565 3565 3565 3565 3528 3528 3493 3458 3458 3423 3423 3423 3423 3423 3423 3423 3423 3423 3423 3423 3390 3390 3390 3324 3293 3262 3262 3231 3231 3231 3231 3231 3201 3201 3172 3172 3143 3143 3143
    0 0 0 0 0 0 0 0 0 0 0 0 0 0 0 0 0 0 0 0 0 0 0 0 0 0 0 0 0 0 0 0 0 0 0 0 0 0 0 0 0 0 0 0 0 0 0 0 0 0 0 0 0 0 0 0 0 0 0 0 0 0 0 0 0 0 0 0 0 0 0 0 0 0 0 0 0 0 0 0 0 0 0 0 0 0 0 0 0 0 0 0 0 2174 2160 2160 2160 2174 2187 2187 2187 2201 2201 2201 2201 2201 2215 2215 2215 2215 2230 2215 2230 2230 2230 2230 2230 2230 2619 2619 2619 2619 2619 2619 2619 2619 2619 2639 2639 0 0 0 3640 3640 3602 3640 3640 3640 3602 3602 3565 3565 3565 3565 3565 3565 3565 3565 3565 3565 3565 3565 3602 3565 3565 3565 3565 3602 3602 3602 3565 3602 3640 3602 3602 3602 3602 3602 3602 3640 3602 3640 3640 3640 3640 3640 3602 3602 3602 3602 3602 3602 3602 3640 3640 3640 3640 3640 3679 3679 3679 3679 3679 3679 3679 3679 3679 3679 3679 3679 3679 3640 3679 3679 3679 3679 3679 3679 3679 3679 3718 3718 3718 3679 3679 3679 3679 3679 3640 3640 3679 3679 3679 3679 3679 3679 3679 3679 3640 3679 3679 3718 3718 3718 3718 3718 3718 3718 3718 3679 3718 3718 3718 3718 3718 3718 3679 3718 3679 3718 3718 3718 3718 3718 3718 3759 3718 3718 3718 3759 3759 3759 3759 3759 3759 3800 3800 3800 3800 3800 3800 3759 3800 3800 3759 3759 3759 3759 3759 3800 3759 3759 3759 3759 3759 3759 3800 3800 3800 3800 3800 3800 3800 3800 3800 3800 3800 3800 3800 3800 3800 3800 3800 3800 3800 3842 3842 3842 3842 3842 3842 3842 3842 3842 3842 3885 3885 3930 3885 3885 3842 3842 3842 3800 3800 3800 3800 3842 620 621 621 622 622 623 624 625 625 625 627 627 627 627 627 628 628 629 630 630 631 631 631 632 632 632 634 635 636 636 636 637 637 637 639 639 641 641 641 642 642 643 644 644 645 645 645 647 647 648 649 649 650 650 651 651 651 654 654 655 655 656 656 656 658 659 660 660 660 661 663 664 664 664 665 667 668 668 669 669 669 670 670 672 673 674 674 676 676 677 678 678 678 677 678 678 678 680 680 681 682 684 685 685 686 688 688 689 689 689 689 691 691 692 693 695 695 695 696 696 698 698 699 700 702 703 705 706 706 706 708 709 712 712 713 713 713 715 715 718 718 718 718 719 719 719 721 722 722 724 725 725 727 729 730 730 730 732 732 732 0 0 0 0 0 0 0 0 0 0 0 0 0 0 0 0 0 0 0 0 0 0 0 0 0 0 0 0 0 0 0 0 0 0 0 0 0 0 0 0 0 0 0 0 3885 3842 3885 3842 3885 3885 3975 3975 3975 3975 3975 3975 3930 3930 3885 3885 3885 3885 3885 3885 3885 3930 3975 3975 3975 3975 3975 3930 3930 3930 3885 3885 3930 3930 3930 3975 3930 3930 3885 3885 3885 3885 3885 3842 3842 3842 3842 3842 3842 3800 3800 3842 3800 3800 3800 3759 3759 3759 3759 3679 3679 3640 3640 3602 3602 3565 3565 3565 3565 3565 3565 3565 3565 3528 3528 3458 3458 3458 3423 3423 3423 3423 3423 3423 3423 3423 3423 3423 3423 3390 3390 3357 3324 3293 3262 3262 3262 3231 3231 3231 3231 3201 3201 3172 3172 3143 3115 3087
    0 0 0 0 0 0 0 0 0 0 0 0 0 0 0 0 0 0 0 0 0 0 0 0 0 0 0 0 0 0 0 0 0 0 0 0 0 0 0 0 0 0 0 0 0 0 0 0 0 0 0 0 0 0 0 0 0 0 0 0 0 0 0 0 0 0 0 0 0 0 0 0 0 0 0 0 0 0 0 0 0 0 0 0 0 0 0 0 0 0 0 0 0 0 2160 2160 2160 2174 2174 2187 2187 2187 2201 2201 2201 2201 2215 2215 2215 2215 2215 2215 2230 2230 2230 2230 2230 2215 2230 2619 2619 2619 2619 2619 2619 2619 2619 2639 2639 0 0 0 3640 3640 3640 3602 3640 3602 3602 3602 3565 3565 3565 3565 3565 3565 3565 3565 3565 3565 3565 3565 3602 3565 3565 3565 3565 3602 3565 3565 3565 3602 3602 3602 3602 3602 3602 3602 3640 3640 3640 3640 3640 3640 3640 3640 3602 3602 3602 3602 3602 3602 3640 3640 3640 3640 3679 3679 3679 3679 3679 3679 3679 3679 3679 3679 3679 3679 3679 3679 3679 3679 3679 3679 3679 3679 3679 3679 3679 3679 3679 3718 3679 3679 3679 3679 3679 3679 3640 3640 3640 3679 3679 3679 3679 3679 3679 3679 3640 3679 3679 3718 3718 3718 3718 3679 3718 3718 3718 3679 3718 3718 3718 3679 3718 3679 3679 3679 3679 3679 3679 3718 3718 3718 3718 3759 3718 3718 3718 3759 3759 3759 3759 3759 3759 3800 3800 3800 3800 3800 3759 3759 3800 3759 3759 3759 3759 3759 3759 3759 3759 3759 3759 3759 3759 3759 3800 3800 3800 3800 3800 3800 3800 3800 3800 3800 3800 3800 3800 3800 3800 3800 3800 3800 3800 3800 3842 3842 3842 3842 3842 3842 3842 3842 3842 3885 3885 3885 3885 3842 3800 3800 3800 3800 3800 3800 3800 3842 620 620 621 621 622 623 624 624 625 625 625 625 627 627 627 627 628 628 629 630 630 630 631 631 632 632 632 634 635 636 636 637 637 637 639 639 639 641 641 641 641 642 643 644 644 645 645 645 647 647 648 649 650 650 650 651 651 653 653 654 655 655 656 656 658 658 660 659 660 661 663 664 664 665 665 667 668 668 669 669 669 670 670 672 672 673 674 674 676 677 677 678 678 677 677 678 678 678 680 681 681 684 684 685 685 686 688 688 689 689 689 689 691 692 693 693 695 695 695 696 696 696 698 699 700 702 703 705 705 706 706 709 711 712 712 713 713 715 715 716 718 718 718 718 719 719 719 722 722 724 725 725 727 729 730 730 730 730 732 732 732 733 735 736 736 0 0 0 0 743 0 0 0 0 0 0 0 0 0 0 0 0 0 0 0 0 0 0 0 0 0 0 0 0 0 0 0 0 0 0 0 0 0 0 3842 3842 3842 3842 3885 3930 3975 3975 3975 3975 3975 3975 3930 3975 3930 3930 3930 3885 3885 3885 3930 3930 3975 3975 3975 3975 3930 3930 3930 3885 3885 3885 3885 3930 3930 3975 3930 3930 3885 3885 3885 3885 3885 3842 3842 3842 3842 3842 3842 3800 3842 3842 3842 3842 3842 3800 3800 3800 3759 3718 3679 3679 3602 3565 3602 3565 3565 3565 3565 3565 3565 3565 3565 3565 3528 3493 3493 3458 3458 3423 3423 3423 3423 3423 3423 3390 3423 3390 3390 3390 3357 3357 3293 3293 3262 3262 3262 3231 3231 3231 3201 3201 3201 3172 3143 3143 3115 3087</data></dframe>
</opencv_storage>
