<?xml version="1.0"?>
<opencv_storage>
<dframe type_id="opencv-matrix">
  <rows>35</rows>
  <cols>640</cols>
  <dt>w</dt>
  <data>
    0 0 0 0 0 0 0 0 0 0 0 0 0 0 0 0 0 0 0 0 0 0 0 0 0 0 0 0 0 0 0 0 0 0 0 0 0 0 0 0 0 0 0 0 0 0 0 0 0 0 0 0 0 0 0 0 0 0 0 0 0 0 0 0 0 0 0 0 0 0 0 0 0 0 0 0 0 0 0 0 0 0 0 0 0 0 0 2095 2095 2095 2107 2107 2107 2107 2107 2107 2120 2120 2133 2133 2133 2147 2147 2160 2160 2160 2160 2160 2160 2160 2160 2160 2160 2160 2160 2174 2174 2174 2174 2174 2174 2187 2174 0 0 0 3324 3324 3357 3390 3423 3423 3458 3458 3458 3458 3458 3493 3493 3493 3493 3493 3493 3528 3528 3528 3528 3528 3528 3528 3528 3528 3528 3528 3528 3528 3528 3528 3528 3528 3528 3528 3528 3528 3528 3528 3528 3528 3528 3565 3528 3528 3528 3528 3528 3528 3528 3528 3528 3528 3528 3528 3528 3565 3565 3565 3565 3565 3565 3565 3528 3528 3528 3528 3528 3565 3565 3565 3565 3602 3565 3602 3565 3602 3565 3602 3602 3565 3602 3602 3640 3640 3640 1069 1069 1066 1063 1060 1053 1050 1047 1044 1044 1040 1040 1037 1034 1034 1034 1034 1034 1037 1037 1040 1044 1047 1047 1047 1047 1050 1050 1050 1050 1047 1047 1044 1044 1044 1047 1047 1044 1047 1047 1047 1047 1047 1047 1047 1050 1050 1050 1053 1053 1056 1056 1056 1060 1060 1060 1063 1063 1066 1066 1069 1073 1073 1076 1079 1079 1083 1083 1083 1083 1086 1086 1086 1086 1086 1090 1090 1093 1097 1100 1104 1104 1107 1111 1118 1118 1129 1136 1140 1144 1148 0 0 0 0 0 0 0 0 0 0 0 0 0 0 0 0 0 0 0 0 0 0 0 3718 3718 3759 3759 3759 3759 3800 586 586 586 587 587 588 589 589 590 591 591 591 592 592 592 592 593 594 595 596 597 597 599 600 600 601 603 604 604 605 605 607 608 608 609 609 609 610 610 611 612 613 614 615 617 617 618 618 619 621 622 623 624 625 625 627 627 628 628 630 630 631 631 632 632 634 635 636 637 638 639 639 641 642 643 644 644 645 645 647 647 648 649 650 651 653 654 653 654 654 655 658 658 659 659 660 663 663 664 665 667 668 668 669 672 672 673 674 676 677 678 678 680 680 681 682 684 685 685 685 686 688 689 689 691 692 693 695 696 698 699 699 700 702 703 705 706 708 708 711 712 712 713 716 718 718 718 719 719 721 722 724 725 727 729 730 732 732 733 733 0 0 0 0 0 0 0 0 0 0 0 0 0 0 0 0 0 0 0 0 0 0 0 0 0 0 0 0 0 0 0 0 0 0 0 0 0 0 0 0 0 0 0 0 0 0 3759 3759 3800 3800 3800 3800 3842 3842 3842 3842 3842 3885 3885 3885 3885 3930 3842 3842 3842 3842 3842 3842 3842 3842 3842 3842 3842 3885 3885 3842 3842 3842 3885 3885 3885 3842 3842 3842 3842 3842 3842 3800 3800 3800 3759 3759 3759 3759 3679 3679 3679 3640 3640 3602 3602 3602 3602 3565 3565 3565 3528 3528 3528 3493 3493 3493 3458 3458 3423 3423 3423 3390 3390 3390 3390 3390 3390 3390 3390 3390 3390 3390 3390 3390 3324 3324 3324 3293 3262 3262 3231 3231 3231 3172 3172 3172 3143 3143 3143 3115
    0 0 0 0 0 0 0 0 0 0 0 0 0 0 0 0 0 0 0 0 0 0 0 0 0 0 0 0 0 0 0 0 0 0 0 0 0 0 0 0 0 0 0 0 0 0 0 0 0 0 0 0 0 0 0 0 0 0 0 0 0 0 0 0 0 0 0 0 0 0 0 0 0 0 0 0 0 0 0 0 0 0 0 0 0 0 2095 2095 2095 2095 2107 2107 2107 2107 2107 2107 2120 2120 2133 2133 2133 2147 2147 2147 2160 2160 2160 2160 2160 2160 2160 2160 2160 2160 2160 2174 2174 2160 2174 2160 2174 2174 2174 0 0 0 3390 0 3390 3390 3423 3458 3458 3458 3458 3458 3458 3458 3493 3493 3493 3493 3493 3528 3528 3528 3528 3493 3528 3528 3528 3528 3528 3528 3528 3528 3528 3528 3528 3528 3528 3528 3528 3493 3528 3528 3528 3528 3528 3565 3528 3528 3528 3528 3528 3528 3528 3528 3528 3528 3528 3565 3565 3565 3565 3565 3565 3565 3565 3565 3528 3528 3528 3528 3565 3565 3565 3565 3565 3602 3602 3602 3565 3602 3565 3565 3565 3565 3602 3602 3640 3640 3640 3640 1063 1063 1063 1060 1053 1050 1047 1044 1044 1040 1040 1037 1034 1034 1034 1037 1037 1040 1044 1044 1047 1047 1047 1050 1047 1050 1050 1050 1050 1047 1044 1044 1044 1044 1044 1047 1044 1047 1047 1047 1047 1047 1047 1047 1050 1047 1050 1053 1053 1056 1056 1056 1056 1060 1060 1060 1060 1060 1066 1066 1069 1073 1076 1079 1083 1083 1083 1083 1083 1086 1086 1086 1086 1086 1090 1090 1093 1097 1100 1100 1104 1107 1111 1114 1118 1125 1136 1136 1144 1144 0 0 0 0 0 0 0 0 0 0 0 0 0 0 0 0 0 0 0 0 0 0 0 0 3718 3718 3759 3759 3759 3800 586 586 587 587 587 588 589 589 590 590 591 591 592 592 592 592 593 594 595 596 596 597 598 600 600 601 603 604 604 605 606 607 608 608 609 609 609 609 610 611 612 613 615 617 617 618 618 618 619 621 622 623 624 625 625 627 627 628 629 630 631 631 631 631 632 634 635 636 637 638 639 639 641 642 643 644 644 645 645 647 648 648 649 650 651 653 653 653 654 654 655 656 658 659 659 660 661 663 664 665 667 668 668 668 670 672 673 674 676 676 677 678 678 680 681 682 684 685 685 685 686 688 689 689 691 692 693 695 696 696 699 699 700 702 703 705 705 706 708 709 711 712 713 716 718 718 718 719 719 721 722 724 725 727 729 730 732 732 732 733 0 0 0 0 0 0 0 0 0 0 0 0 0 0 0 0 0 0 0 0 0 0 0 0 0 0 0 0 0 0 0 0 0 0 0 0 0 0 0 0 0 0 0 0 0 0 3759 3759 3800 3800 3800 3800 3842 3842 3842 3842 3842 3842 3885 3885 3885 3885 3842 3842 3842 3842 3842 3842 3842 3842 3842 3800 3842 3842 3842 3800 3800 3842 3842 3842 3842 3842 3842 3842 3842 3842 3842 3800 3800 3800 3759 3759 3759 3759 3679 3679 3679 3640 3640 3602 3602 3602 3602 3565 3565 3565 3528 3528 3528 3493 3493 3493 3458 3458 3423 3423 3423 3423 3390 3390 3390 3390 3390 3390 3390 3357 3390 3390 3390 3390 3324 3324 3293 3324 3262 3231 3231 3201 3201 3172 3172 3172 3143 3143 3143 3115
    0 0 0 0 0 0 0 0 0 0 0 0 0 0 0 0 0 0 0 0 0 0 0 0 0 0 0 0 0 0 0 0 0 0 0 0 0 0 0 0 0 0 0 0 0 0 0 0 0 0 0 0 0 0 0 0 0 0 0 0 0 0 0 0 0 0 0 0 0 0 0 0 0 0 0 0 0 0 0 0 0 0 0 0 0 2107 2095 2082 2095 2095 2095 2095 2107 2107 2107 2107 2107 2120 2120 2133 2133 2147 2147 2147 2160 2160 2160 2160 2160 2160 2160 2160 2160 2160 2160 2160 2160 2160 2160 2160 2160 2174 2160 2160 0 0 0 0 3390 3423 3423 3458 3458 3458 3458 3458 3458 3458 3493 3493 3493 3493 3493 3528 3528 3528 3493 3493 3528 3528 3528 3528 3528 3528 3528 3528 3528 3528 3493 3493 3493 3493 3493 3493 3493 3528 3528 3528 3528 3565 3528 3565 3565 3528 3565 3565 3528 3528 3565 3565 3565 3565 3528 3565 3565 3565 3565 3565 3565 3565 3565 3565 3565 3565 3565 3565 3565 3565 3565 3602 3602 3602 3565 3565 3565 3565 3565 3565 3565 3602 3640 3640 3640 3679 1063 1063 1060 1056 1050 1050 1047 1044 1044 1040 1040 1037 1037 1037 1037 1040 1044 1044 1047 1047 1047 1047 1047 1050 1047 1050 1050 1047 1047 1044 1044 1044 1044 1044 1044 1047 1044 1047 1044 1044 1047 1047 1047 1047 1047 1047 1050 1050 1053 1053 1056 1056 1056 1060 1060 1060 1060 1063 1063 1066 1069 1073 1076 1079 1083 1083 1083 1083 1083 1086 1086 1086 1086 1086 1090 1090 1093 1097 1100 1104 1104 1107 1111 1114 1118 1125 1133 1136 1140 1144 0 0 0 0 0 0 0 0 0 0 0 0 0 0 0 0 0 0 0 0 0 0 0 0 3718 3718 3718 3718 3759 3800 585 586 587 587 587 588 588 589 589 590 591 591 591 591 592 592 593 594 595 596 596 597 598 599 600 601 603 603 604 605 606 607 608 608 609 609 609 609 610 610 612 613 615 617 617 617 618 618 619 621 622 624 624 625 625 627 628 628 629 630 631 631 631 632 632 634 635 636 637 637 638 639 641 641 642 644 644 645 645 647 648 648 649 650 650 651 653 653 654 654 655 656 658 659 659 659 660 663 664 667 668 668 669 669 670 672 673 674 676 677 677 677 678 680 680 681 682 684 685 685 686 688 688 689 691 692 693 695 696 696 698 699 700 702 703 705 706 706 708 709 711 712 713 716 716 718 718 719 719 719 722 722 724 725 727 729 730 732 732 733 0 0 0 0 0 0 0 0 0 0 0 0 0 0 0 0 0 0 0 0 0 0 0 0 0 0 0 0 0 0 0 0 0 0 0 0 0 0 0 0 0 0 0 0 0 3759 3759 3800 3800 3842 3800 3800 3842 3842 3800 3800 3842 3842 3842 3842 3885 3885 3842 3842 3842 3842 3842 3885 3842 3842 3885 3800 3800 3842 3842 3800 3800 3800 3842 3842 3842 3800 3842 3842 3842 3842 3842 3800 3800 3842 3800 3759 3759 3759 3679 3679 3679 3679 3679 3640 3640 3640 3602 3565 3565 3565 3528 3528 3528 3528 3493 3493 3493 3458 3423 3423 3423 3390 3390 3390 3390 3390 3357 3357 3390 3357 3390 3390 3390 3390 3324 3324 3293 3324 3293 3231 3231 3201 3172 3172 3172 3172 3143 3143 3143 3115
    0 0 0 0 0 0 0 0 0 0 0 0 0 0 0 0 0 0 0 0 0 0 0 0 0 0 0 0 0 0 0 0 0 0 0 0 0 0 0 0 0 0 0 0 0 0 0 0 0 0 0 0 0 0 0 0 0 0 0 0 0 0 0 0 0 0 0 0 0 0 0 0 0 0 0 0 0 0 0 0 0 0 0 0 0 2095 2082 2082 2082 2095 2095 2095 2107 2107 2107 2107 2120 2120 2133 2133 2133 2147 2147 2147 2160 2160 2160 2160 2160 2160 2160 2160 2160 2160 2160 2160 2160 2160 2160 2160 2160 2160 2160 2147 2147 0 0 0 3423 3423 3423 3458 3458 3458 3458 3458 3458 3458 3493 3493 3493 3528 3493 3528 3528 3528 3493 3493 3493 3493 3493 3493 3493 3493 3528 3528 3528 3528 3528 3528 3528 3528 3528 3493 3528 3528 3528 3528 3528 3528 3528 3528 3565 3565 3565 3565 3565 3565 3565 3565 3565 3565 3528 3565 3565 3528 3528 3565 3565 3565 3565 3565 3565 3565 3565 3565 3565 3565 3565 3565 3565 3565 3565 3565 3565 3565 3565 3528 3565 3565 3602 3640 3640 3679 1063 1060 1060 1056 1050 1050 1047 1044 1040 1040 1037 1037 1037 1037 1040 1047 1047 1047 1047 1047 1047 1047 1047 1050 1047 1047 1047 1047 1047 1044 1044 1044 1044 1044 1044 1044 1047 1044 1044 1044 1044 1044 1044 1047 1047 1047 1047 1050 1050 1053 1053 1056 1056 1056 1056 1060 1060 1060 1063 1066 1069 1073 1073 1079 1083 1083 1083 1083 1083 1086 1086 1086 1083 1086 1086 1090 1093 1097 1100 1100 1104 1107 1111 1114 1118 1125 1129 1133 1136 1140 0 0 0 0 0 0 0 0 0 0 0 0 0 0 0 0 0 0 0 0 0 0 0 0 3718 3759 3759 3759 3759 585 585 586 586 587 587 588 588 588 589 590 591 591 591 591 592 592 593 594 595 596 596 597 598 599 600 601 601 603 604 604 605 606 607 608 609 609 609 609 610 610 611 613 615 617 617 618 618 618 619 621 622 624 625 625 625 625 627 628 629 630 630 630 631 632 632 634 635 636 637 637 638 639 639 641 642 644 644 644 645 645 647 648 649 649 650 651 653 653 653 654 655 656 658 658 659 659 660 661 663 665 667 668 668 669 670 672 673 674 676 677 677 677 678 680 680 681 682 684 684 685 686 686 688 689 691 692 692 695 695 696 698 699 700 702 702 703 705 706 706 708 709 712 713 715 716 718 718 719 719 719 721 722 724 725 727 727 730 732 732 732 732 0 0 0 0 0 0 0 0 0 0 0 0 0 0 0 0 0 0 0 0 0 0 0 0 0 0 0 0 0 0 0 0 0 0 0 0 0 0 0 0 0 0 0 0 0 3759 3800 3800 3800 3800 3800 3800 3800 3800 3800 3842 3842 3842 3842 3885 3885 3842 3842 3842 3842 3842 3885 3842 3842 3800 3800 3800 3842 3842 3800 3800 3800 3842 3842 3842 3800 3842 3842 3842 3842 3842 3842 3800 3842 3800 3759 3759 3759 3718 3718 3679 3679 3679 3640 3640 3640 3640 3602 3565 3565 3565 3528 3528 3493 3528 3493 3493 3458 3458 3423 3423 3390 3390 3390 3357 3357 3357 3357 3357 3357 3357 3390 3390 3390 3324 3357 3324 3324 3262 3262 3231 3231 3201 3172 3172 3172 3172 3143 3143 3143
    0 0 0 0 0 0 0 0 0 0 0 0 0 0 0 0 0 0 0 0 0 0 0 0 0 0 0 0 0 0 0 0 0 0 0 0 0 0 0 0 0 0 0 0 0 0 0 0 0 0 0 0 0 0 0 0 0 0 0 0 0 0 0 0 0 0 0 0 0 0 0 0 0 0 0 0 0 0 0 0 0 0 0 0 0 0 2069 2069 2069 2095 2095 2095 2095 2107 2107 2107 2120 2120 2133 2133 2133 2147 2147 2147 2160 2147 2160 2160 2160 2160 2160 2160 2160 2160 2160 2160 2160 2147 2147 2147 2147 2147 2147 2147 2147 0 0 0 0 0 3423 3458 3458 3458 3458 3423 3458 3458 3458 3493 3493 3528 3493 3528 3528 3528 3528 3493 3493 3493 3493 3493 3493 3493 3528 3528 3528 3528 3528 3528 3528 3528 3493 3493 3493 3528 3528 3528 3528 3528 3528 3565 3565 3565 3565 3565 3565 3528 3565 3565 3528 3528 3528 3528 3528 3528 3528 3528 3565 3565 3565 3565 3565 3565 3565 3565 3565 3565 3565 3602 3565 3565 3565 3565 3565 3565 3565 3528 3565 3565 3602 3640 3679 3718 3759 1060 1060 1056 1050 1047 1044 1044 1044 1040 1040 1037 1037 1044 1044 1047 1047 1047 1047 1050 1050 1047 1047 1050 1047 1047 1047 1047 1047 1044 1044 1044 1044 1040 1044 1044 1044 1044 1044 1044 1044 1044 1044 1044 1047 1047 1047 1047 1050 1053 1053 1053 1053 1056 1056 1056 1060 1060 1060 1063 1066 1069 1073 1076 1079 1079 1083 1083 1083 1083 1086 1083 1083 1083 1086 1090 1093 1097 1097 1100 1104 1104 1107 1114 1114 1122 1122 1129 1136 1140 1140 0 0 0 0 0 0 0 0 0 0 0 0 0 0 0 0 0 0 0 0 0 0 0 3759 3759 3759 3759 3759 3759 584 585 586 587 586 587 588 588 589 589 591 591 591 591 591 592 592 593 594 596 596 598 598 599 600 601 603 603 604 605 605 606 607 608 609 609 609 609 610 610 611 613 614 617 617 617 618 618 619 619 623 623 623 624 625 625 627 628 629 630 630 630 631 631 632 634 635 636 637 637 638 638 639 641 642 643 644 644 645 647 648 648 649 650 650 651 653 653 653 654 655 658 658 659 659 659 660 661 663 665 667 668 668 668 670 672 673 674 676 677 677 677 678 680 680 681 682 684 684 684 685 686 688 688 689 691 692 693 695 696 698 699 700 702 702 703 705 706 706 708 709 711 712 713 716 718 718 718 719 719 721 721 722 724 725 727 730 730 732 732 732 0 0 0 0 0 0 0 0 0 0 0 0 0 0 0 0 0 0 0 0 0 0 0 0 0 0 0 0 0 0 0 0 0 0 0 0 0 0 0 0 0 0 0 0 0 3800 3800 3759 3800 3759 3800 3800 3800 3759 3759 3842 3842 3842 3842 3885 3842 3842 3842 3842 3842 3842 3842 3842 3800 3800 3800 3842 3842 3842 3800 3800 3800 3842 3842 3842 3800 3842 3842 3842 3842 3842 3842 3800 3842 3800 3800 3759 3759 3679 3679 3679 3640 3640 3640 3679 3679 3640 3640 3602 3602 3602 3565 3528 3493 3493 3493 3493 3458 3458 3423 3423 3423 3390 3357 3324 3324 3324 3324 3357 3390 3357 3357 3357 3390 3324 3357 3357 3357 3262 3231 3231 3201 3201 3172 3172 3172 3172 3143 3143 3143
    0 0 0 0 0 0 0 0 0 0 0 0 0 0 0 0 0 0 0 0 0 0 0 0 0 0 0 0 0 0 0 0 0 0 0 0 0 0 0 0 0 0 0 0 0 0 0 0 0 0 0 0 0 0 0 0 0 0 0 0 0 0 0 0 0 0 0 0 0 0 0 0 0 0 0 0 0 0 0 0 0 0 0 0 0 0 2057 2057 2069 2082 2095 2095 2095 2107 2107 2107 2120 2120 2133 2133 2133 2147 2147 2147 2147 2147 2147 2160 2160 2160 2160 2160 2160 2160 2160 2160 2160 2147 2147 2147 2147 2147 2147 2147 2147 0 0 0 0 0 3423 3458 3458 3458 3458 3423 3458 3458 3458 3493 3493 3528 3528 3528 3528 3528 3528 3528 3528 3493 3493 3458 3493 3493 3528 3528 3528 3528 3528 3528 3528 3493 3493 3458 3493 3493 3493 3528 3528 3528 3528 3565 3565 3565 3565 3565 3565 3565 3565 3565 3528 3528 3528 3528 3528 3528 3528 3528 3528 3565 3565 3565 3565 3565 3565 3565 3565 3565 3565 3602 3565 3565 3565 3565 3565 3528 3528 3528 3565 3565 3565 3602 3718 3718 3759 1056 1056 1053 1047 1047 1044 1044 1044 1044 1040 1040 1040 1044 1047 1047 1047 1047 1047 1047 1047 1047 1047 1047 1047 1047 1047 1047 1047 1047 1044 1044 1044 1044 1044 1044 1044 1044 1044 1044 1044 1044 1044 1044 1047 1047 1047 1047 1047 1050 1050 1053 1053 1056 1056 1056 1056 1056 1060 1063 1063 1069 1069 1073 1076 1079 1079 1083 1083 1083 1086 1083 1083 1083 1086 1090 1090 1097 1097 1100 1100 1104 1107 1114 1114 1118 1122 1129 1133 1136 0 0 0 0 0 0 0 0 0 0 0 0 0 0 0 0 0 0 0 0 0 0 0 0 3718 3759 3759 3759 3759 584 584 585 586 586 586 587 588 588 589 589 590 591 591 591 591 591 592 592 594 595 596 597 598 599 600 601 601 603 604 604 605 606 607 608 609 609 609 610 610 610 611 613 614 615 617 617 617 617 618 619 621 623 622 624 625 625 627 627 628 629 630 630 631 631 632 634 635 636 636 637 638 638 639 641 642 643 644 644 645 645 647 648 649 650 650 651 653 653 653 654 655 656 658 659 659 659 660 660 661 664 667 668 667 668 669 670 672 673 674 676 676 677 678 678 680 681 682 684 684 684 685 686 688 688 689 691 692 693 695 698 699 699 700 702 702 703 705 706 706 708 709 711 712 713 716 716 716 718 719 719 719 721 721 724 725 727 730 730 732 732 732 0 0 0 0 0 0 0 0 0 0 0 0 0 0 0 0 0 0 0 0 0 0 0 0 0 0 0 0 0 0 0 0 0 0 0 0 0 0 0 0 0 0 0 0 0 0 3759 3759 3800 3759 3759 3759 3800 3759 3759 3800 3718 3842 3842 3842 3842 3885 3842 3842 3842 3885 3842 3842 3842 3800 3800 3842 3842 3800 3800 3800 3800 3842 3842 3842 3800 3842 3842 3842 3842 3842 3842 3842 3842 3842 3800 3759 3759 3718 3718 3679 3640 3640 3679 3679 3679 3640 3640 3602 3602 3602 3565 3528 3528 3528 3528 3493 3493 3458 3458 3423 3423 3390 3390 3357 3324 3324 3324 3357 3324 3357 3357 3357 3357 3324 3293 3293 3293 3262 3231 3231 3201 3172 3172 3172 3172 3172 3143 3143 3115
    0 0 0 0 0 0 0 0 0 0 0 0 0 0 0 0 0 0 0 0 0 0 0 0 0 0 0 0 0 0 0 0 0 0 0 0 0 0 0 0 0 0 0 0 0 0 0 0 0 0 0 0 0 0 0 0 0 0 0 0 0 0 0 0 0 0 0 0 0 0 0 0 0 0 0 0 0 0 0 0 0 0 0 0 0 0 2069 2057 2069 2082 2095 2095 2095 2107 2107 2107 2120 2120 2133 2133 2133 2133 2147 2147 2147 2147 2147 2147 2160 2160 2160 2160 2160 2160 2160 2160 2160 2147 2147 2147 2147 2147 2147 2147 2147 2147 0 0 0 0 3423 3493 3493 3458 3458 3458 3458 3458 3493 3493 3493 3528 3493 3528 3528 3528 3528 3493 3493 3493 3493 3458 3458 3493 3493 3493 3493 3528 3528 3528 3528 3493 3458 3458 3458 3493 3493 3528 3528 3528 3528 3565 3528 3565 3565 3565 3565 3565 3565 3565 3528 3528 3528 3528 3528 3528 3528 3528 3528 3528 3528 3528 3565 3565 3565 3565 3565 3565 3565 3565 3565 3565 3565 3528 3565 3565 3528 3528 3565 3565 3565 3640 3679 3679 3718 3759 1053 1050 1047 1047 1044 1040 1040 1040 1040 1040 1044 1047 1047 1050 1050 1047 1047 1047 1047 1047 1047 1047 1047 1047 1047 1047 1044 1044 1044 1044 1044 1044 1044 1044 1044 1040 1044 1044 1044 1044 1044 1044 1044 1044 1047 1047 1047 1047 1050 1050 1053 1053 1056 1056 1056 1056 1056 1060 1063 1066 1069 1073 1076 1076 1079 1079 1083 1083 1086 1086 1086 1086 1086 1086 1090 1093 1097 1100 1100 1104 1107 1111 1114 1118 1122 1125 1133 1136 1140 0 0 0 0 0 0 0 0 0 0 0 0 0 0 0 0 0 0 0 0 0 0 0 3759 3759 3759 3718 584 584 584 585 586 586 586 587 588 588 588 588 589 590 590 591 591 591 592 593 594 595 596 598 598 599 600 600 601 603 603 604 605 606 607 608 609 609 610 610 610 611 612 613 614 617 615 617 617 617 618 618 618 621 622 623 624 624 625 627 628 628 629 630 631 631 632 634 635 636 636 637 638 638 639 639 642 643 644 645 645 647 648 648 649 649 650 651 653 653 653 653 655 656 658 658 658 659 659 660 661 663 665 667 667 668 669 670 672 673 674 676 676 676 677 680 680 681 682 684 684 684 685 685 686 688 689 689 691 692 695 696 699 699 700 702 702 703 705 706 706 708 709 711 712 713 715 716 716 718 718 718 719 719 721 722 725 727 730 730 730 732 732 0 0 0 0 0 0 0 0 0 0 0 0 0 0 0 0 0 0 0 0 0 0 0 0 0 0 0 0 0 0 0 0 0 0 0 0 0 0 0 0 0 0 0 0 0 0 3759 3759 3759 3759 3759 3759 3759 3759 3842 3842 3759 3842 3842 3842 3842 3885 3842 3842 3885 3885 3885 3842 3842 3842 3842 3842 3842 3842 3800 3842 3842 3842 3842 3842 3800 3800 3842 3842 3842 3800 3800 3842 3842 3842 3800 3800 3759 3718 3718 3679 3679 3640 3640 3679 3640 3640 3640 3602 3602 3565 3565 3528 3528 3528 3528 3493 3493 3458 3458 3458 3423 3390 3390 3324 3324 3324 3324 3324 3324 3357 3357 3357 3357 3293 3293 3293 3293 3262 3231 3231 3201 3201 3172 3172 3172 3172 3143 3143 3115
    0 0 0 0 0 0 0 0 0 0 0 0 0 0 0 0 0 0 0 0 0 0 0 0 0 0 0 0 0 0 0 0 0 0 0 0 0 0 0 0 0 0 0 0 0 0 0 0 0 0 0 0 0 0 0 0 0 0 0 0 0 0 0 0 0 0 0 0 0 0 0 0 0 0 0 0 0 0 0 0 0 0 0 0 0 0 2057 2057 2069 2082 2095 2095 2095 2107 2107 2107 2120 2120 2133 2133 2133 2133 2147 2147 2147 2147 2147 2147 2147 2160 2160 2147 2147 2160 2160 2160 2160 2133 2147 2147 2147 2147 2147 2147 2147 2147 0 0 0 0 0 3493 3493 3493 3458 3458 3493 3493 3493 3493 3493 3528 3528 3528 3493 3528 3493 3493 3493 3493 3493 3493 3493 3493 3493 3493 3528 3528 3528 3528 3528 3528 3493 3458 3458 3493 3493 3493 3528 3528 3528 3528 3528 3528 3565 3565 3565 3565 3565 3528 3528 3528 3528 3528 3528 3528 3528 3528 3565 3528 3528 3565 3528 3528 3565 3565 3565 3565 3565 3565 3565 3565 3565 3565 3565 3565 3565 3528 3565 3565 3565 3602 3679 3718 3759 3800 1050 1050 1047 1044 1040 1040 1040 1040 1040 1044 1047 1047 1047 1047 1050 1047 1047 1047 1047 1044 1044 1044 1044 1044 1044 1044 1040 1044 1040 1044 1044 1044 1044 1044 1044 1044 1047 1044 1044 1044 1044 1044 1044 1044 1047 1047 1047 1047 1050 1050 1050 1053 1053 1053 1056 1056 1056 1060 1060 1063 1066 1069 1073 1076 1076 1079 1079 1083 1083 1086 1086 1086 1086 1086 1090 1093 1097 1097 1100 1104 1107 1111 1114 1118 1122 1125 1129 0 0 0 0 0 0 0 0 0 0 0 0 0 0 0 0 0 0 0 0 0 0 0 0 0 0 3718 3718 583 583 583 584 584 585 586 586 587 587 587 588 588 589 590 590 591 591 591 592 593 594 595 596 597 598 599 599 600 601 601 603 604 605 605 606 607 609 609 609 610 610 611 612 613 614 615 615 615 617 617 617 618 618 621 621 622 623 624 625 625 627 628 629 630 630 631 632 634 635 635 636 636 637 638 638 639 642 643 644 645 647 647 647 648 649 650 650 651 653 653 653 653 655 658 658 659 658 659 659 660 661 664 665 667 667 668 669 669 670 672 673 674 674 676 677 678 680 681 682 682 682 684 685 685 686 686 688 689 691 692 695 696 699 699 700 702 702 703 705 706 706 708 709 711 712 713 715 716 716 718 718 718 719 719 721 722 725 727 730 730 730 732 732 0 0 0 0 0 0 0 0 0 0 0 0 0 0 0 0 0 0 0 0 0 0 0 0 0 0 0 0 0 0 0 0 0 0 0 0 0 0 0 0 0 0 0 0 0 0 3759 3759 3759 3718 3759 3759 3759 3759 3800 3842 3759 3800 3800 3842 3842 3842 3842 3842 3885 3885 3885 3842 3842 3842 3842 3842 3842 3842 3842 3842 3842 3842 3842 3842 3800 3800 3842 3842 3842 3800 3800 3842 3842 3842 3800 3759 3759 3759 3718 3679 3640 3640 3640 3640 3640 3640 3640 3602 3602 3565 3565 3528 3528 3528 3528 3528 3528 3493 3493 3493 3423 3390 3390 3357 3357 3357 3324 3390 3390 3390 3390 3390 3390 3324 3293 3293 3293 3262 3231 3231 3201 3201 3172 3172 3172 3172 3143 3143 3143
    0 0 0 0 0 0 0 0 0 0 0 0 0 0 0 0 0 0 0 0 0 0 0 0 0 0 0 0 0 0 0 0 0 0 0 0 0 0 0 0 0 0 0 0 0 0 0 0 0 0 0 0 0 0 0 0 0 0 0 0 0 0 0 0 0 0 0 0 0 0 0 0 0 0 0 0 0 0 0 0 0 0 0 0 0 0 2045 2057 2069 2082 2082 2095 2095 2095 2107 2107 2120 2120 2133 2133 2133 2133 2147 2147 2147 2147 2147 2147 2147 2147 2147 2147 2147 2147 2147 2147 2147 2133 2133 2133 2147 2147 2147 2147 2147 0 0 0 0 0 0 3458 3493 3493 3458 3458 3493 3493 3493 3493 3493 3528 3528 3528 3493 3528 3493 3493 3493 3493 3493 3493 3493 3493 3493 3493 3493 3528 3528 3528 3528 3528 3493 3458 3458 3493 3493 3493 3528 3528 3528 3565 3528 3565 3565 3565 3565 3565 3528 3528 3528 3528 3493 3528 3528 3528 3528 3528 3528 3528 3528 3528 3528 3528 3528 3528 3528 3565 3565 3565 3565 3565 3565 3565 3565 3565 3565 3565 3565 3565 3565 3565 3759 3800 3800 3800 1053 1050 1047 1044 1040 1040 1040 1040 1040 1044 1047 1047 1047 1047 1047 1047 1047 1047 1044 1044 1044 1044 1040 1040 1044 1040 1040 1040 1044 1044 1044 1044 1044 1044 1044 1044 1044 1044 1044 1044 1044 1040 1044 1044 1044 1044 1047 1047 1047 1050 1050 1050 1053 1053 1056 1056 1056 1060 1060 1063 1066 1069 1073 1073 1073 1076 1076 1079 1083 1083 1083 1083 1086 1086 1090 1093 1093 1097 1097 1100 1104 1111 1114 1118 1122 1125 1129 0 0 0 0 0 0 0 0 0 0 0 0 0 0 0 0 0 0 0 0 0 0 0 0 0 0 0 0 0 583 586 583 584 585 585 585 586 587 587 588 588 588 589 590 590 591 591 592 592 594 595 596 597 597 598 599 600 600 601 601 603 604 605 606 607 608 609 610 610 610 611 611 612 613 614 614 615 617 617 618 618 619 620 621 622 623 624 625 625 627 628 629 630 630 631 631 632 635 635 635 636 636 637 638 639 641 643 644 645 645 647 647 648 649 650 651 653 654 653 653 653 654 656 658 658 658 659 659 660 661 664 665 667 667 668 669 669 670 672 673 674 674 676 677 678 680 681 682 682 682 682 684 685 685 686 688 689 691 691 693 696 698 699 700 700 702 703 703 705 705 706 708 709 711 712 713 715 716 718 718 718 719 719 721 722 724 727 729 730 730 732 0 0 0 0 0 0 0 0 0 0 0 0 0 0 0 0 0 0 0 0 0 0 0 0 0 0 0 0 0 0 0 0 0 0 0 0 0 0 0 0 0 0 0 0 0 0 3718 3718 3718 3759 3718 3718 3759 3759 3759 3800 3842 3759 3800 3800 3842 3842 3842 3842 3842 3885 3885 3885 3885 3842 3842 3842 3800 3800 3800 3842 3842 3842 3842 3842 3842 3800 3800 3842 3842 3842 3800 3800 3842 3842 3842 3800 3759 3718 3759 3718 3679 3640 3640 3640 3640 3640 3640 3602 3602 3565 3565 3565 3528 3528 3528 3528 3528 3528 3493 3493 3493 3423 3390 3390 3357 3357 3357 3324 3357 3357 3357 3390 3390 3357 3293 3262 3262 3262 3231 3201 3231 3201 3231 3172 3201 3201 3172 3143 3143 3143
    0 0 0 0 0 0 0 0 0 0 0 0 0 0 0 0 0 0 0 0 0 0 0 0 0 0 0 0 0 0 0 0 0 0 0 0 0 0 0 0 0 0 0 0 0 0 0 0 0 0 0 0 0 0 0 0 0 0 0 0 0 0 0 0 0 0 0 0 0 0 0 0 0 0 0 0 0 0 0 0 0 0 0 0 0 0 2045 2057 2069 2069 2082 2095 2095 2095 2107 2107 2120 2120 2120 2120 2133 2133 2147 2147 2147 2147 2147 2147 2147 2147 2147 2147 2147 2147 2147 2147 2147 2133 2133 2147 2147 2147 2147 2147 2147 0 0 0 0 0 0 3458 3458 3458 3458 3458 3493 3493 3493 3493 3493 3528 3528 3528 3528 3528 3528 3528 3493 3493 3493 3493 3493 3493 3493 3493 3493 3528 3528 3528 3528 3528 3493 3458 3458 3493 3493 3493 3528 3528 3528 3528 3528 3528 3565 3565 3565 3528 3528 3528 3528 3493 3493 3493 3528 3528 3528 3528 3528 3528 3528 3528 3528 3528 3528 3528 3528 3565 3565 3565 3565 3565 3565 3565 3565 3565 3565 3565 3565 3565 3565 3718 3759 3800 3800 3842 1050 1050 1047 1044 1040 1040 1037 1044 1040 1044 1044 1047 1047 1047 1047 1047 1047 1044 1044 1044 1044 1044 1040 1040 1044 1040 1040 1040 1040 1040 1040 1040 1040 1040 1040 1040 1040 1040 1040 1040 1040 1040 1044 1044 1044 1044 1044 1044 1047 1047 1047 1050 1053 1053 1056 1056 1056 1060 1060 1063 1063 1069 1069 1073 1073 1073 1076 1076 1079 1083 1083 1083 1086 1086 1090 1090 1093 1097 1097 1100 1104 1107 1114 1114 1118 1125 1125 0 0 0 0 0 0 0 0 0 0 0 0 0 0 0 0 0 0 0 0 0 0 0 0 0 0 0 0 0 584 585 585 584 584 585 585 586 587 587 587 588 588 588 589 590 590 591 592 593 594 595 596 596 597 598 599 600 600 601 601 603 604 605 605 606 608 609 610 610 610 611 612 612 613 614 614 614 615 617 617 618 618 620 621 622 623 623 625 625 627 628 628 629 630 631 631 632 635 635 635 636 636 637 637 638 639 642 643 644 645 645 647 648 649 650 651 653 653 653 653 653 654 656 658 658 658 659 659 660 661 664 665 667 667 668 668 669 669 670 672 673 674 676 677 678 680 681 681 682 682 684 684 685 685 686 688 689 689 691 693 696 698 699 700 700 702 702 703 705 705 706 708 709 711 712 713 715 716 718 718 718 719 721 721 724 725 727 730 730 732 733 0 0 0 0 0 0 0 0 0 0 0 0 0 0 0 0 0 0 0 0 0 0 0 0 0 0 0 0 0 0 0 0 0 0 0 0 0 0 0 0 0 0 0 0 0 3759 3718 3718 3718 3718 3718 3718 3718 3759 3800 3842 3885 3800 3800 3842 3842 3842 3842 3842 3842 3885 3885 3885 3885 3842 3800 3800 3800 3800 3800 3842 3842 3842 3842 3842 3842 3842 3842 3842 3842 3842 3800 3800 3842 3842 3842 3800 3759 3718 3718 3679 3679 3640 3640 3640 3640 3640 3640 3602 3565 3565 3565 3528 3528 3528 3528 3528 3528 3528 3493 3493 3493 3423 3390 3390 3357 3357 3324 3293 3357 3324 3324 3324 3324 3324 3262 3262 3262 3231 3231 3201 3201 3201 3231 3201 3201 3201 3201 3201 3201 3172
    0 0 0 0 0 0 0 0 0 0 0 0 0 0 0 0 0 0 0 0 0 0 0 0 0 0 0 0 0 0 0 0 0 0 0 0 0 0 0 0 0 0 0 0 0 0 0 0 0 0 0 0 0 0 0 0 0 0 0 0 0 0 0 0 0 0 0 0 0 0 0 0 0 0 0 0 0 0 0 0 0 0 0 0 0 2045 2045 2057 2057 2069 2069 2095 2095 2107 2107 2107 2120 2120 2120 2120 2133 2133 2133 2147 2147 2133 2133 2133 2147 2147 2147 2147 2147 2147 2147 2147 2147 2133 2133 2147 2147 2147 2147 2147 2147 0 0 0 0 0 0 3423 3458 3458 3423 3458 3458 3458 3493 3493 3493 3493 3493 3528 3493 3528 3528 3528 3493 3493 3493 3493 3458 3493 3493 3493 3493 3493 3493 3493 3528 3528 3493 3458 3458 3493 3493 3493 3528 3528 3528 3528 3528 3528 3565 3565 3565 3528 3528 3528 3528 3493 3493 3493 3528 3528 3528 3528 3528 3528 3528 3528 3528 3528 3528 3528 3528 3528 3528 3528 3528 3528 3528 3565 3565 3565 3565 3565 3565 3640 3679 3718 3800 3842 3842 3885 1050 1050 1047 1044 1040 1040 1040 1044 1040 1044 1044 1047 1047 1047 1047 1047 1044 1044 1044 1044 1044 1044 1040 1040 1040 1040 1040 1040 1040 1040 1040 1040 1040 1040 1040 1037 1040 1037 1040 1040 1040 1040 1044 1044 1044 1044 1044 1044 1047 1047 1047 1050 1050 1053 1053 1056 1056 1056 1060 1063 1063 1066 1069 1069 1073 1073 1073 1076 1079 1079 1083 1083 1086 1086 1086 1090 1090 1093 1097 1100 1100 1107 1111 1111 1114 1118 0 0 0 0 0 0 0 0 0 0 0 0 0 0 0 0 0 0 0 0 0 0 0 0 0 0 0 0 0 0 584 584 584 583 584 584 585 586 586 587 587 588 588 588 589 590 590 591 592 592 594 594 596 596 597 598 598 599 600 600 600 603 604 605 605 607 608 609 610 610 611 611 612 612 613 613 613 614 615 615 617 618 618 619 620 622 622 623 624 625 627 627 628 629 630 630 631 632 634 635 635 636 636 637 638 638 639 641 643 644 644 644 645 647 649 650 651 653 654 653 653 653 654 656 658 658 658 659 659 660 661 664 664 665 667 668 668 669 670 670 672 673 674 676 676 678 680 681 681 682 682 684 684 685 685 685 688 688 689 691 692 695 698 698 700 700 702 702 703 703 705 706 708 708 709 712 713 713 715 716 718 718 719 719 721 722 725 727 729 730 730 732 0 0 0 0 0 0 0 0 0 0 0 0 0 0 0 0 0 0 0 0 0 0 0 0 0 0 0 0 0 0 0 0 0 0 0 0 0 0 0 0 0 0 0 0 3800 3759 3718 3718 3718 3718 3718 3718 3718 3759 3842 3842 3885 3842 3842 3842 3842 3842 3842 3842 3842 3842 3885 3885 3885 3842 3842 3800 3800 3842 3842 3842 3842 3842 3842 3842 3842 3842 3842 3842 3842 3842 3800 3800 3842 3842 3800 3759 3718 3679 3679 3640 3640 3640 3640 3640 3640 3640 3602 3565 3565 3565 3565 3528 3528 3528 3528 3528 3493 3493 3493 3458 3458 3423 3423 3390 3357 3357 3357 3324 3357 3324 3324 3324 3293 3293 3262 3231 3231 3262 3262 3231 3231 3231 3231 3201 3201 3201 3201 3201 3201 3172
    0 0 0 0 0 0 0 0 0 0 0 0 0 0 0 0 0 0 0 0 0 0 0 0 0 0 0 0 0 0 0 0 0 0 0 0 0 0 0 0 0 0 0 0 0 0 0 0 0 0 0 0 0 0 0 0 0 0 0 0 0 0 0 0 0 0 0 0 0 0 0 0 0 0 0 0 0 0 0 0 0 0 0 0 0 2045 2057 2057 2057 2069 2082 2095 2095 2095 2107 2107 2120 2120 2120 2120 2133 2133 2133 2133 2133 2133 2133 2133 2133 2133 2133 2133 2147 2147 2147 2147 2147 2133 2133 2133 2147 2147 2147 2147 2147 0 0 0 0 0 0 3423 3423 3423 3423 3423 3458 3458 3493 3458 3458 3493 3493 3528 3493 3528 3528 3528 3528 3528 3493 3493 3493 3493 3493 3493 3493 3493 3493 3493 3528 3493 3493 3493 3458 3493 3493 3493 3528 3528 3528 3565 3565 3565 3565 3565 3528 3528 3528 3493 3528 3493 3493 3493 3528 3528 3565 3528 3528 3528 3528 3528 3528 3528 3528 3528 3528 3528 3528 3528 3528 3528 3528 3565 3565 3565 3565 3565 3565 3679 3718 3759 3842 3885 3885 3885 1050 1050 1047 1044 1040 1044 1040 1044 1040 1040 1044 1044 1047 1047 1047 1047 1044 1044 1044 1044 1044 1044 1040 1040 1040 1040 1040 1040 1040 1040 1040 1040 1037 1040 1037 1037 1037 1037 1040 1037 1037 1040 1040 1044 1044 1044 1044 1044 1047 1047 1047 1047 1050 1050 1053 1053 1053 1056 1060 1060 1063 1066 1066 1069 1069 1073 1073 1076 1076 1079 1079 1083 1083 1086 1086 1086 1090 1093 1097 1097 1100 1104 1107 1111 1111 1114 0 0 0 0 0 0 0 0 0 0 0 0 0 0 0 0 0 0 0 0 0 0 0 0 0 0 0 0 0 0 582 583 582 583 584 584 584 585 586 586 587 587 588 588 589 590 590 591 591 592 593 594 595 596 596 597 598 599 599 600 600 603 604 605 606 607 608 609 610 610 611 612 612 612 613 613 613 614 614 615 617 617 618 619 620 621 622 623 624 625 625 627 628 629 630 630 631 631 634 635 635 636 636 637 637 637 639 639 642 643 644 644 645 645 649 650 651 653 654 653 653 653 654 655 656 658 658 659 659 660 661 663 664 665 665 668 668 669 669 670 672 673 673 674 676 677 678 680 681 681 682 682 684 684 684 685 686 688 691 692 693 695 696 698 699 700 702 702 702 703 705 706 708 709 709 712 713 713 715 716 718 718 719 719 721 724 725 727 729 729 730 730 0 0 0 0 0 0 0 0 0 0 0 0 0 0 0 0 0 0 0 0 0 0 0 0 0 0 0 0 0 0 0 0 0 0 0 0 0 0 0 0 0 0 0 0 0 3759 3718 3718 3718 3718 3718 3718 3759 3759 3800 3842 3885 3842 3842 3800 3842 3842 3842 3842 3842 3842 3885 3885 3885 3842 3842 3842 3842 3842 3842 3842 3842 3842 3842 3842 3842 3842 3842 3842 3842 3800 3800 3800 3800 3800 3759 3759 3718 3718 3679 3640 3640 3640 3640 3640 3640 3640 3602 3602 3565 3565 3565 3528 3528 3493 3493 3493 3493 3493 3458 3458 3458 3458 3423 3390 3390 3357 3357 3324 3324 3324 3324 3324 3293 3293 3262 3262 3231 3201 3201 3172 3231 3231 3201 3201 3201 3172 3201 3201 3172 3172
    0 0 0 0 0 0 0 0 0 0 0 0 0 0 0 0 0 0 0 0 0 0 0 0 0 0 0 0 0 0 0 0 0 0 0 0 0 0 0 0 0 0 0 0 0 0 0 0 0 0 0 0 0 0 0 0 0 0 0 0 0 0 0 0 0 0 0 0 0 0 0 0 0 0 0 0 0 0 0 0 0 0 0 0 0 2057 2057 2057 2069 2082 2082 2095 2095 2107 2107 2107 2107 2120 2120 2120 2120 2133 2133 2133 2133 2133 2133 2133 2133 2133 2133 2133 2147 2133 2147 2147 2147 2133 2133 2133 2147 2147 2147 2147 2147 0 0 0 0 0 3423 3423 3423 3423 3423 3423 3458 3458 3493 3458 3458 3458 3493 3528 3493 3493 3493 3493 3493 3493 3493 3493 3493 3493 3493 3493 3493 3493 3493 3493 3528 3493 3493 3458 3458 3458 3493 3493 3493 3528 3528 3528 3528 3528 3528 3528 3528 3528 3493 3493 3493 3493 3493 3493 3528 3528 3528 3528 3528 3528 3565 3528 3528 3528 3528 3528 3528 3528 3528 3528 3528 3528 3528 3565 3565 3565 3565 3565 3640 3679 3718 3759 3842 3842 3842 3885 1050 1050 1047 1047 1044 1044 1040 1044 1044 1044 1044 1044 1044 1047 1044 1044 1044 1044 1044 1044 1040 1040 1040 1037 1040 1040 1040 1040 1040 1040 1040 1040 1037 1037 1034 1034 1034 1037 1037 1037 1037 1037 1040 1044 1044 1044 1044 1044 1044 1047 1047 1047 1047 1050 1050 1053 1053 1056 1056 1060 1060 1063 1066 1069 1069 1073 1073 1073 1076 1079 1079 1083 1083 1086 1086 1086 1090 1090 1093 1097 1100 1104 1107 1107 1111 1114 0 0 0 0 0 0 0 0 0 0 0 0 0 0 0 0 0 0 0 0 0 0 0 0 0 0 0 0 0 0 582 583 583 583 584 584 585 585 586 587 587 587 588 588 589 590 590 591 591 592 593 594 595 595 596 597 598 598 599 599 600 601 603 605 606 607 608 608 609 610 611 612 612 612 613 613 613 613 614 615 617 618 618 619 620 621 622 623 624 625 625 627 628 629 629 630 631 631 632 634 635 636 636 636 637 637 638 639 642 643 644 644 644 645 648 649 651 651 653 653 653 653 654 655 656 658 658 659 659 660 661 663 664 665 665 667 668 669 669 670 672 673 673 674 674 676 677 678 680 681 682 682 684 684 684 685 688 688 691 692 693 695 696 696 699 700 700 702 702 703 703 705 706 708 709 712 713 713 715 715 716 718 718 719 721 722 724 727 729 729 730 730 0 0 0 0 0 0 0 0 0 0 0 0 0 0 0 0 0 0 0 0 0 0 0 0 0 0 0 0 0 0 0 0 0 0 0 0 0 0 0 0 0 0 0 0 0 3718 3718 3718 3718 3718 3718 3718 3759 3759 3800 3842 3885 3842 3842 3842 3842 3842 3842 3842 3842 3842 3885 3885 3842 3842 3800 3800 3800 3800 3842 3842 3842 3842 3842 3842 3842 3842 3842 3842 3842 3800 3800 3800 3800 3800 3759 3718 3718 3718 3679 3640 3640 3640 3640 3640 3640 3602 3565 3565 3565 3565 3565 3528 3528 3528 3493 3493 3493 3493 3458 3458 3458 3458 3423 3423 3390 3357 3357 3324 3324 3324 3324 3324 3324 3324 3293 3262 3262 3231 3231 3231 3231 3231 3201 3201 3172 3172 3201 3201 3201 3201
    0 0 0 0 0 0 0 0 0 0 0 0 0 0 0 0 0 0 0 0 0 0 0 0 0 0 0 0 0 0 0 0 0 0 0 0 0 0 0 0 0 0 0 0 0 0 0 0 0 0 0 0 0 0 0 0 0 0 0 0 0 0 0 0 0 0 0 0 0 0 0 0 0 0 0 0 0 0 0 0 0 0 0 0 2057 2057 2057 2057 2069 2069 2082 2095 2095 2095 2107 2107 2107 2107 2120 2120 2120 2120 2133 2133 2133 2133 2133 2133 2133 2133 2133 2133 2133 2133 2133 2133 2147 2133 2133 2133 2133 2147 2147 2147 2147 0 0 0 0 0 3423 3390 3423 3423 3423 3423 3423 3493 3493 3458 3458 3458 3493 3493 3493 3493 3493 3493 3493 3493 3493 3493 3493 3493 3493 3493 3493 3493 3493 3493 3528 3493 3493 3493 3458 3458 3423 3458 3458 3493 3528 3528 3528 3528 3528 3528 3493 3493 3493 3458 3493 3493 3493 3493 3493 3528 3528 3528 3528 3528 3528 3528 3528 3528 3528 3528 3528 3528 3528 3528 3528 3528 3528 3565 3565 3565 3565 3602 3640 3679 3718 3759 1100 1100 3885 1093 1056 1053 1047 1047 1044 1044 1040 1044 1040 1044 1044 1047 1047 1047 1047 1047 1044 1044 1044 1044 1040 1040 1040 1037 1037 1037 1037 1037 1037 1037 1037 1037 1037 1037 1034 1034 1034 1034 1037 1037 1037 1037 1040 1040 1044 1044 1044 1044 1044 1044 1044 1047 1047 1047 1050 1050 1053 1056 1056 1060 1060 1063 1066 1066 1069 1069 1073 1073 1076 1079 1079 1083 1083 1086 1086 1086 1090 1090 1093 1097 1100 1100 1104 1107 1111 1114 1114 0 0 0 0 0 0 0 0 0 0 0 0 0 0 0 0 0 0 0 0 0 0 0 0 0 0 0 0 0 583 583 583 583 583 584 584 585 586 587 587 587 588 588 589 589 590 591 591 592 593 594 595 595 596 597 597 598 599 599 599 600 603 604 605 606 607 608 609 609 611 612 612 612 613 613 613 613 614 614 615 617 618 619 620 621 622 623 624 625 625 627 628 629 629 630 630 631 632 635 635 636 636 636 637 637 638 639 642 643 643 644 644 647 648 649 650 651 653 651 651 653 654 655 656 658 658 659 659 660 661 664 664 665 667 667 668 669 669 670 673 673 673 674 674 676 677 678 680 681 682 682 684 684 684 685 686 689 691 692 692 693 695 696 698 699 700 700 702 702 703 705 706 708 709 712 712 713 713 715 716 718 719 719 721 722 724 725 729 729 730 730 0 0 0 0 0 0 0 0 0 0 0 0 0 0 0 0 0 0 0 0 0 0 0 0 0 0 0 0 0 0 0 0 0 0 0 0 0 0 0 0 0 0 0 0 0 3718 3718 3718 3718 3718 3718 3718 3759 3759 3800 3842 3885 3842 3842 3842 3842 3842 3842 3842 3800 3842 3842 3842 3842 3800 3800 3800 3800 3842 3842 3842 3842 3842 3842 3842 3842 3842 3842 3842 3842 3800 3800 3800 3800 3800 3759 3718 3718 3679 3679 3640 3640 3640 3640 3640 3640 3640 3602 3565 3565 3565 3565 3565 3528 3528 3528 3493 3493 3493 3493 3458 3458 3458 3458 3423 3390 3390 3357 3324 3324 3324 3293 3324 3324 3324 3293 3293 3262 3262 3262 3231 3231 3231 3231 3201 3201 3172 3201 3201 3201 3172
    0 0 0 0 0 0 0 0 0 0 0 0 0 0 0 0 0 0 0 0 0 0 0 0 0 0 0 0 0 0 0 0 0 0 0 0 0 0 0 0 0 0 0 0 0 0 0 0 0 0 0 0 0 0 0 0 0 0 0 0 0 0 0 0 0 0 0 0 0 0 0 0 0 0 0 0 0 0 0 0 0 0 0 2045 2045 2057 2057 2057 2057 2069 2069 2095 2095 2095 2107 2107 2107 2107 2120 2120 2120 2120 2133 2133 2133 2133 2133 2133 2133 2133 2133 2133 2133 2133 2133 2147 2147 2133 2133 2133 2133 2147 2147 2147 2133 0 0 0 0 0 3423 3390 3390 3390 3423 3423 3423 3423 3458 3458 3423 3458 3458 3493 3493 3493 3493 3493 3493 3493 3493 3493 3493 3493 3493 3528 3528 3528 3493 3493 3528 3493 3493 3458 3493 3423 3458 3458 3458 3528 3528 3528 3528 3528 3528 3528 3493 3493 3493 3458 3458 3493 3493 3493 3493 3493 3528 3528 3528 3528 3565 3528 3528 3528 3528 3493 3493 3493 3528 3528 3528 3528 3528 3565 3528 3565 3565 3602 3640 3679 3718 3759 1100 1097 1093 1093 1060 1060 1056 1047 1044 1044 1044 1044 1044 1044 1044 1044 1044 1044 1044 1044 1044 1044 1044 1044 1040 1040 1037 1034 1037 1034 1034 1034 1037 1037 1037 1037 1034 1034 1034 1034 1034 1034 1037 1037 1037 1037 1040 1040 1044 1040 1040 1044 1044 1044 1044 1044 1044 1047 1047 1050 1050 1053 1056 1056 1060 1063 1063 1066 1069 1069 1073 1073 1076 1076 1079 1079 1083 1083 1086 1086 1090 1090 1093 1097 1097 1100 1104 1104 1107 1111 0 0 0 0 0 0 0 0 0 0 0 0 0 0 0 0 0 0 0 0 0 0 0 0 0 0 0 0 0 0 584 584 582 583 583 583 584 585 586 586 587 587 588 588 589 589 590 590 591 592 593 594 595 595 596 596 597 598 599 599 600 600 603 604 605 606 607 607 608 609 610 611 611 612 612 612 613 613 613 614 615 617 618 619 619 620 621 622 623 624 625 627 628 628 629 629 630 630 632 634 635 636 636 636 637 637 638 639 641 643 643 643 644 647 649 650 651 651 653 651 651 653 654 654 656 658 658 659 659 660 661 663 664 665 665 667 668 668 669 670 670 672 673 674 674 676 677 678 680 681 682 682 684 684 685 685 688 689 691 692 693 693 695 696 698 699 700 700 702 702 703 705 706 709 709 712 712 713 713 715 716 718 719 719 721 722 724 725 727 727 729 727 0 0 0 0 0 0 0 0 0 0 0 0 0 0 0 0 0 0 0 0 0 0 0 0 0 0 0 0 0 0 0 0 0 0 0 0 0 0 0 0 0 0 0 0 3718 3718 3718 3718 3718 3718 3718 3718 3759 3759 3800 3800 3842 3800 3800 3800 3800 3842 3842 3842 3842 3842 3842 3842 3842 3800 3800 3800 3800 3842 3842 3842 3842 3842 3885 3885 3842 3842 3842 3842 3842 3800 3800 3800 3800 3759 3718 3679 3679 3679 3679 3640 3640 3640 3640 3640 3640 3640 3602 3565 3565 3602 3565 3565 3528 3528 3493 3493 3493 3458 3458 3458 3458 3458 3458 3423 3390 3390 3390 3357 3357 3357 3293 3293 3324 3324 3293 3293 3262 3262 3262 3231 3231 3231 3231 3201 3201 3201 3201 3201 3172 3172
    0 0 0 0 0 0 0 0 0 0 0 0 0 0 0 0 0 0 0 0 0 0 0 0 0 0 0 0 0 0 0 0 0 0 0 0 0 0 0 0 0 0 0 0 0 0 0 0 0 0 0 0 0 0 0 0 0 0 0 0 0 0 0 0 0 0 0 0 0 0 0 0 0 0 0 0 0 0 0 0 0 0 0 2045 2057 2057 2057 2057 2057 2069 2069 2095 2095 2095 2107 2107 2107 2107 2107 2120 2120 2120 2133 2133 2133 2133 2133 2133 2133 2133 2133 2133 2133 2133 2133 2133 2147 2133 2133 2133 2133 2133 2133 2133 2133 0 0 0 0 0 3390 3357 3357 3357 3390 3390 3390 3423 3423 3423 3423 3423 3458 3493 3493 3493 3493 3493 3493 3493 3493 3493 3493 3493 3493 3493 3493 3493 3493 3493 3493 3493 3493 3493 3493 3458 3493 3493 3493 3528 3528 3528 3528 3528 3493 3528 3493 3493 3493 3493 3493 3493 3493 3458 3493 3493 3528 3528 3528 3528 3528 3528 3528 3528 3528 3528 3493 3493 3528 3528 3528 3528 3528 3565 3528 3565 3602 3602 3640 3640 3718 3718 1100 1097 1093 1093 1083 1063 1056 1050 1047 1047 1047 1047 1044 1044 1044 1044 1044 1047 1044 1047 1044 1044 1044 1040 1040 1040 1037 1034 1034 1034 1034 1034 1037 1037 1034 1034 1034 1034 1034 1034 1034 1034 1037 1037 1037 1037 1037 1040 1040 1040 1040 1040 1040 1040 1044 1044 1044 1044 1047 1047 1050 1053 1053 1056 1060 1060 1063 1066 1069 1069 1069 1073 1073 1076 1079 1079 1083 1083 1086 1086 1090 1093 1093 1097 1097 1100 1100 1100 1104 1107 0 0 0 0 0 0 0 0 0 0 0 0 0 0 0 0 0 0 0 0 0 0 0 0 0 0 0 0 0 0 0 584 582 582 583 583 584 584 586 586 587 587 587 588 588 589 589 590 591 592 593 594 594 595 596 596 597 598 599 599 600 600 603 604 605 605 607 607 608 608 609 611 611 612 612 612 613 613 613 614 615 617 618 618 619 620 621 622 623 625 625 627 627 628 629 629 630 630 632 634 635 636 636 637 637 638 638 639 641 642 643 643 644 645 648 649 650 651 653 651 651 653 653 654 655 656 658 658 659 660 661 663 664 664 665 665 667 667 668 669 670 672 673 674 674 676 677 678 680 681 682 684 684 684 685 686 688 689 689 691 692 693 695 696 698 699 700 700 702 702 703 705 706 708 709 711 712 713 715 716 718 718 719 719 719 721 722 725 727 727 727 727 0 0 0 0 0 0 0 0 0 0 0 0 0 0 0 0 0 0 0 0 0 0 0 0 0 0 0 0 0 0 0 0 0 0 0 0 0 0 0 0 0 0 0 0 3759 3718 3718 3759 3759 3718 3718 3759 3759 3759 3800 3759 3800 3800 3800 3800 3800 3842 3842 3842 3800 3800 3800 3842 3842 3800 3759 3800 3842 3800 3800 3842 3842 3842 3885 3885 3842 3842 3842 3842 3800 3800 3800 3800 3800 3759 3718 3679 3679 3679 3679 3640 3640 3640 3640 3679 3640 3640 3602 3565 3565 3565 3565 3565 3528 3528 3493 3493 3493 3458 3458 3458 3458 3423 3423 3423 3390 3390 3390 3324 3293 3293 3293 3293 3293 3293 3262 3262 3231 3201 3231 3231 3231 3231 3231 3201 3201 3172 3172 3172 3172 3172
    0 0 0 0 0 0 0 0 0 0 0 0 0 0 0 0 0 0 0 0 0 0 0 0 0 0 0 0 0 0 0 0 0 0 0 0 0 0 0 0 0 0 0 0 0 0 0 0 0 0 0 0 0 0 0 0 0 0 0 0 0 0 0 0 0 0 0 0 0 0 0 0 0 0 0 0 0 0 0 0 0 0 0 2057 2057 2057 2057 2057 2069 2069 2082 2095 2095 2095 2095 2107 2107 2107 2107 2107 2120 2120 2120 2133 2133 2133 2133 2133 2133 2133 2133 2133 2133 2133 2133 2133 2147 2133 2133 2133 2133 2147 2133 2147 2133 0 0 0 0 0 0 3423 3390 3423 3423 3390 3390 3423 3423 3423 3423 3423 3458 3458 3493 3493 3493 3458 3493 3493 3458 3458 3458 3458 3493 3493 3493 3493 3493 3493 3493 3493 3493 3493 3493 3458 3493 3493 3493 3493 3528 3528 3528 3528 3528 3493 3493 3493 3493 3493 3458 3493 3493 3493 3528 3528 3528 3528 3528 3528 3528 3528 3528 3528 3528 3528 3528 3528 3528 3528 3528 3528 3528 3565 3565 3565 3602 3602 3640 3640 3679 1100 1100 1097 1093 1093 1083 1050 1050 1050 1050 1047 1047 1047 1047 1044 1044 1044 1044 1044 1044 1044 1044 1044 1040 1040 1040 1037 1037 1034 1034 1034 1034 1034 1034 1034 1034 1034 1034 1034 1034 1034 1034 1034 1034 1037 1037 1037 1037 1040 1040 1040 1040 1040 1040 1040 1040 1040 1044 1044 1044 1047 1047 1050 1053 1056 1056 1060 1063 1063 1066 1069 1069 1073 1073 1076 1079 1079 1083 1083 1086 1086 1086 1090 1093 1093 1097 1097 1100 1100 1104 0 0 0 0 0 0 0 0 0 0 0 0 0 0 0 0 0 0 0 0 0 0 0 0 0 0 0 0 0 0 0 0 0 581 582 583 583 583 584 585 586 586 587 587 588 588 589 589 590 591 592 592 594 595 595 596 596 597 598 599 599 600 600 603 604 605 605 606 606 607 608 609 610 611 612 612 613 613 613 613 614 615 617 617 618 619 620 621 622 623 624 625 625 627 628 628 629 629 630 632 634 635 636 636 636 637 638 639 639 641 642 642 643 644 645 648 649 650 650 651 651 651 653 653 654 655 656 656 658 659 660 661 663 664 664 664 665 667 667 668 669 670 672 673 674 674 677 678 678 680 680 681 682 684 684 685 686 688 689 689 691 692 692 693 696 698 699 700 700 702 703 703 705 708 708 709 711 712 713 715 716 718 718 719 719 719 721 722 725 727 727 727 727 0 0 0 0 0 0 0 0 0 0 0 0 0 0 0 0 0 0 0 0 0 0 0 0 0 0 0 0 0 0 0 0 0 0 0 0 0 0 0 0 0 0 0 0 3759 3718 3718 3759 3759 3759 3759 3759 3759 3759 3759 3759 3800 3800 3800 3800 3800 3800 3800 3842 3800 3800 3800 3800 3800 3800 3800 3800 3800 3842 3842 3842 3842 3885 3885 3885 3842 3842 3842 3842 3800 3800 3800 3800 3800 3800 3759 3718 3718 3718 3679 3679 3679 3679 3679 3679 3640 3640 3602 3565 3565 3565 3565 3565 3528 3528 3528 3458 3528 3458 3458 3423 3423 3423 3423 3423 3390 3390 3390 3293 3293 3293 3293 3293 3293 3293 3262 3262 3231 3231 3231 3231 3231 3201 3201 3172 3172 3172 3172 3172 3143 3172
    0 0 0 0 0 0 0 0 0 0 0 0 0 0 0 0 0 0 0 0 0 0 0 0 0 0 0 0 0 0 0 0 0 0 0 0 0 0 0 0 0 0 0 0 0 0 0 0 0 0 0 0 0 0 0 0 0 0 0 0 0 0 0 0 0 0 0 0 0 0 0 0 0 0 0 0 0 0 0 0 0 0 0 2045 2057 2057 2057 2057 2069 2069 2082 2095 2082 2095 2095 2095 2107 2107 2107 2107 2120 2120 2133 2133 2133 2133 2133 2133 2133 2133 2133 2133 2133 2133 2133 2133 2133 2120 2133 2133 2133 2133 2133 2133 2133 0 0 0 0 0 0 3423 3390 3423 3423 3390 3423 3423 3423 3423 3423 3423 3423 3458 3458 3458 3458 3458 3458 3458 3458 3458 3458 3458 3458 3493 3493 3493 3493 3493 3493 3493 3493 3493 3493 3458 3493 3493 3493 3528 3528 3528 3528 3528 3528 3528 3493 3493 3493 3493 3493 3493 3493 3493 3528 3493 3493 3528 3528 3528 3528 3528 3528 3528 3528 3528 3528 3528 3528 3528 3528 3528 3528 3565 3565 3565 3602 3602 3640 3640 3679 1100 1100 1097 1093 1090 1079 1066 1053 1053 1050 1047 1047 1047 1047 1044 1047 1044 1044 1044 1044 1044 1040 1040 1040 1037 1037 1037 1034 1034 1034 1034 1034 1034 1034 1034 1034 1034 1034 1034 1034 1034 1034 1034 1034 1034 1037 1037 1037 1037 1037 1037 1037 1037 1037 1037 1040 1040 1044 1044 1044 1047 1047 1050 1053 1056 1056 1056 1060 1063 1066 1069 1069 1073 1073 1076 1079 1079 1083 1083 1086 1086 1086 1090 1093 1097 1097 1097 1100 1100 1100 0 0 0 0 0 0 0 0 0 0 0 0 0 0 0 0 0 0 0 0 0 0 0 0 0 0 0 0 0 0 0 0 0 581 582 582 583 583 584 585 585 586 587 587 587 588 589 589 590 590 591 592 594 594 595 596 596 597 598 599 599 600 600 603 604 604 605 606 606 607 607 608 610 611 611 612 612 613 613 613 613 614 615 617 618 619 619 621 621 622 624 624 625 627 627 628 628 629 630 631 634 635 635 636 637 637 638 639 641 641 642 643 643 644 645 647 648 649 650 651 651 651 653 653 654 655 656 656 658 659 659 660 663 663 664 664 665 667 668 668 669 670 670 672 674 674 676 677 678 680 680 681 682 682 684 685 686 688 689 691 691 692 693 693 695 698 698 699 700 702 702 703 706 708 708 709 711 712 713 713 718 718 718 719 719 719 721 722 724 725 725 725 725 725 0 0 0 0 0 0 0 0 0 0 0 0 0 0 0 0 0 0 0 0 0 0 0 0 0 0 0 0 0 0 0 0 0 0 0 0 0 0 0 0 0 0 0 0 3718 3759 3759 3759 3759 3759 3759 3759 3759 3759 3759 3800 3800 3800 3800 3800 3800 3800 3800 3800 3800 3800 3800 3800 3842 3800 3842 3885 3842 3842 3842 3842 3842 3885 3842 3842 3842 3842 3842 3842 3800 3800 3800 3800 3759 3759 3718 3718 3718 3718 3679 3679 3679 3640 3679 3640 3602 3602 3565 3565 3565 3565 3565 3528 3528 3528 3528 3528 3458 3458 3423 3423 3458 3458 3423 3390 3390 3357 3324 3324 3293 3293 3293 3293 3293 3262 3262 3231 3231 3231 3201 3201 3201 3201 3172 3172 3172 3172 3143 3143 3143
    0 0 0 0 0 0 0 0 0 0 0 0 0 0 0 0 0 0 0 0 0 0 0 0 0 0 0 0 0 0 0 0 0 0 0 0 0 0 0 0 0 0 0 0 0 0 0 0 0 0 0 0 0 0 0 0 0 0 0 0 0 0 0 0 0 0 0 0 0 0 0 0 0 0 0 0 0 0 0 0 0 0 2045 2045 2057 2057 2057 2057 2069 2069 2082 2095 2082 2095 2095 2095 2095 2107 2107 2107 2120 2120 2120 2133 2133 2133 2133 2133 2133 2133 2133 2133 2133 2133 2133 2133 2133 2120 2120 2120 2133 2133 2133 2133 2133 0 0 0 0 0 0 0 3458 3458 3423 3423 3458 3423 3423 3423 3423 3423 3423 3458 3423 3458 3458 3458 3423 3458 3458 3458 3458 3458 3458 3458 3458 3493 3493 3493 3493 3493 3493 3493 3493 3458 3493 3493 3493 3528 3528 3528 3528 3528 3528 3528 3493 3493 3493 3493 3458 3458 3493 3493 3493 3493 3493 3493 3528 3528 3528 3528 3528 3528 3528 3528 3528 3528 3528 3528 3528 3528 3528 3565 3565 3565 3602 3602 3640 3640 3679 3679 1100 1097 1093 1090 1083 1069 1060 1056 1053 1050 1050 1050 1047 1047 1044 1044 1044 1044 1040 1040 1040 1040 1040 1037 1037 1034 1034 1034 1034 1031 1034 1034 1034 1034 1034 1034 1034 1034 1034 1034 1034 1034 1034 1034 1034 1034 1034 1037 1037 1034 1034 1037 1037 1037 1040 1040 1040 1044 1044 1047 1047 1050 1053 1056 1056 1056 1060 1060 1063 1066 1069 1073 1073 1076 1079 1079 1083 1083 1086 1086 1086 1090 1093 1093 1097 1097 1100 1100 1100 0 0 0 0 0 0 0 0 0 0 0 0 0 0 0 0 0 0 0 0 0 0 0 0 0 0 0 0 0 0 0 0 0 581 582 582 583 583 584 585 585 586 586 587 587 588 589 589 589 590 591 592 594 594 595 596 596 597 598 599 599 600 600 601 603 604 605 605 605 606 607 608 609 610 611 611 612 612 612 613 613 614 615 617 618 619 619 621 621 622 623 624 625 627 627 628 628 629 630 631 634 635 635 636 637 637 639 639 641 641 642 642 643 644 644 645 648 649 650 650 650 651 651 653 654 655 656 656 658 658 659 660 661 663 663 664 665 667 667 668 669 670 670 672 673 674 676 677 678 680 680 680 681 682 684 685 686 688 689 689 691 691 692 693 695 696 698 700 700 702 702 703 705 708 708 709 711 712 713 715 718 718 718 718 718 719 721 724 725 727 727 727 727 0 0 0 0 0 0 0 0 0 0 0 0 0 0 0 0 0 0 0 0 0 0 0 0 0 0 0 0 0 0 0 0 0 0 0 0 0 0 0 0 0 0 0 0 0 3679 3718 3718 3718 3759 3759 3759 3759 3759 3759 3759 3759 3759 3800 3800 3800 3800 3800 3800 3800 3800 3800 3800 3842 3842 3842 3842 3842 3842 3842 3800 3842 3842 3842 3842 3842 3842 3842 3842 3842 3800 3800 3800 3800 3800 3759 3759 3718 3759 3718 3679 3679 3679 3679 3679 3640 3602 3602 3565 3565 3565 3565 3565 3528 3528 3493 3493 3528 3458 3458 3423 3423 3423 3423 3423 3390 3390 3357 3293 3262 3324 3293 3293 3293 3293 3262 3262 3201 3172 3143 3143 3143 3143 3143 3143 3143 3143 3143 3143 3143 3143
    0 0 0 0 0 0 0 0 0 0 0 0 0 0 0 0 0 0 0 0 0 0 0 0 0 0 0 0 0 0 0 0 0 0 0 0 0 0 0 0 0 0 0 0 0 0 0 0 0 0 0 0 0 0 0 0 0 0 0 0 0 0 0 0 0 0 0 0 0 0 0 0 0 0 0 0 0 0 0 0 0 0 2021 2033 2045 2057 2057 2057 2069 2069 2082 2095 2082 2095 2095 2095 2095 2107 2107 2107 2120 2120 2133 2133 2133 2133 2133 2133 2133 2133 2133 2120 2133 2120 2133 2133 2133 2120 2120 2120 2133 2133 2133 2133 2133 2133 0 0 0 0 0 0 0 3458 3423 3423 3423 3423 3423 3423 3423 3423 3423 3423 3423 3458 3458 3458 3423 3423 3458 3458 3458 3423 3458 3458 3458 3493 3493 3493 3493 3458 3458 3493 3493 3458 3458 3493 3493 3528 3528 3528 3528 3528 3528 3528 3493 3493 3493 3493 3493 3493 3493 3493 3493 3493 3493 3493 3528 3528 3528 3528 3528 3528 3528 3528 3528 3528 3528 3528 3528 3528 3528 3565 3565 3565 3565 3602 3602 3602 3640 3640 1100 1093 1090 1090 1083 1073 1060 1056 1053 1050 1050 1050 1047 1047 1044 1044 1040 1040 1040 1037 1037 1037 1037 1034 1034 1034 1034 1034 1031 1031 1031 1031 1034 1034 1034 1034 1034 1034 1034 1034 1034 1034 1034 1034 1034 1034 1034 1034 1034 1034 1034 1034 1034 1034 1037 1040 1040 1044 1044 1047 1047 1050 1050 1053 1056 1056 1060 1060 1063 1066 1069 1073 1073 1076 1079 1079 1083 1083 1086 1086 1086 1090 1090 1093 1097 1097 1100 1100 1100 0 0 0 0 0 0 0 0 0 0 0 0 0 0 0 0 0 0 0 0 0 0 0 0 0 0 0 0 0 0 0 0 0 581 582 582 583 583 584 585 585 586 587 587 587 588 589 589 590 591 591 592 593 594 595 596 596 597 598 599 599 600 600 601 603 604 604 605 605 606 607 608 609 609 610 611 611 612 612 613 613 614 615 617 618 619 619 620 621 622 623 624 625 625 627 627 628 629 630 631 632 635 635 636 636 637 638 639 639 641 642 642 643 643 644 645 648 649 650 650 650 651 651 653 654 655 656 656 658 658 659 660 661 663 663 664 665 667 668 668 669 670 670 672 674 674 676 677 678 680 680 680 681 682 684 685 686 688 688 689 691 691 692 692 695 696 699 700 700 702 702 703 705 708 708 709 711 712 713 713 715 718 718 718 718 719 721 722 725 725 727 725 725 725 0 0 0 0 0 0 0 0 0 0 0 0 0 0 0 0 0 0 0 0 0 0 0 0 0 0 0 0 0 0 0 0 0 0 0 0 0 0 0 0 0 0 0 0 3679 3718 3718 3718 3759 3718 3759 3759 3759 3718 3718 3759 3759 3800 3842 3800 3800 3800 3842 3800 3759 3800 3842 3842 3842 3842 3842 3842 3842 3842 3842 3842 3842 3842 3842 3842 3842 3842 3842 3842 3842 3842 3842 3842 3842 3800 3759 3759 3759 3759 3718 3679 3679 3640 3640 3640 3602 3602 3565 3565 3565 3565 3565 3528 3493 3493 3493 3493 3458 3458 3423 3423 3423 3423 3423 3390 3390 3357 3293 3293 3293 3293 3293 3293 3293 3262 3231 3201 3172 3143 3143 3143 3143 3143 3143 3172 3143 3143 3143 3143 3143
    0 0 0 0 0 0 0 0 0 0 0 0 0 0 0 0 0 0 0 0 0 0 0 0 0 0 0 0 0 0 0 0 0 0 0 0 0 0 0 0 0 0 0 0 0 0 0 0 0 0 0 0 0 0 0 0 0 0 0 0 0 0 0 0 0 0 0 0 0 0 0 0 0 0 0 0 0 0 0 0 0 0 2033 2045 2045 2057 2057 2057 2069 2069 2082 2095 2082 2082 2095 2095 2107 2107 2107 2107 2107 2120 2120 2133 2133 2133 2133 2133 2133 2120 2120 2120 2133 2120 2133 2133 2133 2120 2120 2120 2120 2133 2133 2133 2133 2133 2133 0 0 0 0 0 0 3458 3423 3423 3423 3458 3423 3423 3423 3423 3423 3423 3458 3423 3423 3423 3423 3458 3458 3458 3458 3458 3458 3458 3493 3493 3493 3493 3493 3493 3493 3493 3493 3493 3493 3493 3493 3528 3528 3528 3528 3528 3528 3493 3458 3493 3493 3493 3493 3493 3493 3493 3493 3458 3458 3493 3493 3528 3528 3528 3528 3528 3528 3528 3528 3528 3528 3528 3528 3528 3528 3565 3565 3565 3565 3565 3602 3602 3565 3565 1100 1093 1090 1090 1079 1073 1060 1056 1056 1050 1050 1047 1047 1044 1044 1044 1040 1040 1040 1040 1037 1037 1034 1034 1034 1034 1031 1034 1031 1031 1031 1031 1031 1031 1034 1031 1034 1034 1034 1034 1034 1034 1034 1034 1034 1034 1034 1034 1034 1034 1034 1034 1034 1034 1037 1037 1040 1044 1044 1044 1047 1047 1050 1053 1053 1056 1056 1060 1063 1066 1069 1073 1073 1076 1079 1083 1083 1083 1086 1086 1090 1090 1090 1093 1097 1097 1100 1100 1100 0 0 0 0 0 0 0 0 0 0 0 0 0 0 0 0 0 0 0 0 0 0 0 0 0 0 0 0 0 0 0 0 579 580 581 582 583 583 584 585 585 586 587 587 587 588 589 589 590 590 591 592 593 594 595 596 596 597 598 599 600 600 601 601 603 604 604 605 605 606 607 608 608 609 609 610 611 612 612 612 613 613 614 617 618 618 619 620 621 622 623 624 625 625 627 627 628 628 630 631 632 634 635 635 636 636 638 639 639 641 642 642 643 643 644 645 648 649 650 650 650 650 651 653 654 655 656 656 658 658 659 659 660 663 663 664 665 667 668 668 669 669 669 672 673 674 676 677 678 680 680 680 681 682 684 684 685 688 688 689 691 691 692 692 696 698 698 699 700 702 702 703 705 706 708 709 709 711 712 713 713 716 716 718 718 719 721 724 725 725 727 725 725 725 0 0 0 0 0 0 0 0 0 0 0 0 0 0 0 0 0 0 0 0 0 0 0 0 0 0 0 0 0 0 0 0 0 0 0 0 0 0 0 0 0 0 0 0 0 3718 3718 3759 3759 3718 3759 3759 3759 3718 3718 3759 3759 3842 3842 3842 3842 3800 3842 3800 3759 3800 3800 3800 3842 3842 3842 3842 3842 3842 3842 3842 3842 3842 3842 3842 3842 3842 3842 3842 3842 3842 3842 3842 3842 3842 3800 3800 3759 3759 3718 3718 3679 3679 3679 3679 3640 3640 3640 3602 3565 3565 3565 3528 3528 3493 3493 3493 3458 3458 3423 3423 3423 3423 3423 3390 3390 3357 3324 3293 3293 3293 3293 3293 3293 3231 3231 3172 3143 3143 3143 3143 3143 3143 3143 3172 3143 3143 3143 3143 3143
    0 0 0 0 0 0 0 0 0 0 0 0 0 0 0 0 0 0 0 0 0 0 0 0 0 0 0 0 0 0 0 0 0 0 0 0 0 0 0 0 0 0 0 0 0 0 0 0 0 0 0 0 0 0 0 0 0 0 0 0 0 0 0 0 0 0 0 0 0 0 0 0 0 0 0 0 0 0 0 0 0 0 0 2045 2045 2057 2057 2057 2069 2069 2082 2095 2082 2095 2095 2095 2107 2107 2107 2107 2107 2120 2120 2120 2120 2120 2120 2120 2120 2120 2120 2120 2133 2133 2133 2133 2133 2120 2120 2120 2120 2120 2120 2133 2133 2147 2147 0 0 0 0 0 3423 3423 3423 3423 3423 3423 3423 3423 3423 3423 3423 3423 3423 3423 3423 3423 3423 3458 3458 3458 3458 3458 3458 3458 3458 3458 3493 3493 3493 3458 3493 3493 3493 3493 3493 3493 3493 3528 3528 3493 3528 3528 3528 3458 3458 3493 3493 3493 3493 3493 3493 3493 3493 3493 3493 3493 3493 3493 3528 3493 3528 3528 3528 3528 3528 3528 3528 3528 3528 3528 3528 3528 3565 3565 3565 3565 3565 3565 3565 3565 1100 1097 1090 1090 1079 1073 1063 1056 1056 1053 1050 1047 1047 1044 1044 1044 1040 1040 1037 1037 1037 1034 1034 1034 1034 1031 1031 1031 1031 1031 1031 1031 1031 1031 1031 1031 1031 1031 1031 1031 1031 1031 1031 1031 1034 1034 1034 1034 1034 1034 1034 1034 1034 1034 1034 1037 1037 1040 1044 1044 1047 1047 1050 1053 1053 1053 1056 1060 1060 1063 1066 1069 1073 1079 1079 1083 1083 1086 1086 1086 1086 1090 1090 1093 1093 1097 1097 1097 1100 0 0 0 0 0 0 0 0 0 0 0 0 0 0 0 0 0 0 0 0 0 0 0 0 0 0 0 0 0 0 0 578 579 580 581 581 582 583 584 584 585 585 586 587 587 588 589 590 590 591 591 592 593 594 595 596 596 597 598 599 599 600 601 601 603 604 605 605 605 606 607 608 608 609 609 610 611 612 612 613 613 613 614 617 618 618 619 620 621 622 623 624 625 625 627 627 628 628 629 630 632 634 634 635 636 636 637 638 639 641 642 642 642 643 644 644 647 649 649 650 650 651 651 653 654 654 655 655 656 658 659 659 661 663 663 664 665 667 668 668 669 669 669 672 673 674 674 677 678 678 680 680 681 682 684 685 685 686 688 689 689 691 691 692 695 696 698 699 700 702 702 703 705 706 708 709 709 711 712 713 713 715 716 718 718 719 719 722 724 725 725 725 725 724 0 0 0 0 0 0 0 0 0 0 0 0 0 0 0 0 0 0 0 0 0 0 0 0 0 0 0 0 0 0 0 0 0 0 0 0 0 0 0 0 0 0 0 0 0 3718 3718 3718 3759 3718 3759 3759 3759 3718 3718 3759 3759 3759 3842 3842 3842 3842 3842 3842 3800 3800 3800 3800 3842 3842 3842 3842 3842 3842 3842 3842 3842 3842 3842 3842 3842 3842 3800 3800 3800 3800 3842 3842 3842 3842 3842 3800 3842 3800 3759 3718 3718 3679 3679 3679 3640 3640 3640 3602 3565 3528 3528 3528 3493 3493 3528 3458 3423 3423 3423 3423 3423 3423 3423 3390 3390 3390 3357 3324 3324 3293 3293 3293 3293 3231 3201 3172 3143 3143 3143 3143 3143 3143 3143 3143 3143 3143 3115 3143 3115
    0 0 0 0 0 0 0 0 0 0 0 0 0 0 0 0 0 0 0 0 0 0 0 0 0 0 0 0 0 0 0 0 0 0 0 0 0 0 0 0 0 0 0 0 0 0 0 0 0 0 0 0 0 0 0 0 0 0 0 0 0 0 0 0 0 0 0 0 0 0 0 0 0 0 0 0 0 0 0 0 0 0 0 2045 2045 2057 2057 2057 2069 2069 2082 2095 2095 2095 2095 2107 2107 2107 2107 2107 2107 2120 2120 2120 2120 2120 2120 2120 2120 2120 2120 2120 2120 2120 2120 2133 2133 2120 2120 2133 2120 2133 2133 2133 2133 2133 2133 2133 0 0 0 0 3423 3423 3423 3423 3423 3458 3423 3423 3423 3423 3423 3423 3423 3423 3423 3423 3423 3458 3458 3458 3458 3458 3458 3458 3458 3458 3458 3458 3458 3458 3458 3458 3493 3493 3458 3493 3493 3493 3493 3493 3493 3493 3493 3493 3458 3458 3493 3493 3493 3493 3493 3493 3493 3493 3493 3493 3493 3493 3493 3528 3528 3528 3528 3528 3528 3528 3528 3528 3528 3528 3528 3528 3565 3528 3565 3565 3565 3565 3565 3528 1100 1100 1097 1093 1079 1069 1060 1056 1056 1053 1050 1047 1047 1044 1040 1040 1037 1037 1034 1037 1037 1034 1034 1034 1034 1034 1031 1031 1031 1031 1031 1031 1031 1031 1031 1031 1031 1031 1031 1031 1031 1031 1031 1031 1031 1031 1031 1031 1034 1034 1034 1034 1034 1034 1034 1037 1037 1040 1044 1044 1047 1047 1050 1053 1053 1053 1056 1056 1060 1063 1066 1069 1073 1079 1083 1083 1083 1086 1086 1086 1086 1090 1090 1093 1093 1097 1097 1097 1100 0 0 0 0 0 0 0 0 0 0 0 0 0 0 0 0 0 0 0 0 0 0 0 0 0 0 0 0 0 0 0 578 579 580 581 582 582 583 584 584 584 585 585 586 587 588 589 590 590 591 592 592 593 594 595 595 596 597 597 598 599 600 601 601 603 604 605 605 605 606 607 607 608 609 609 610 611 612 612 612 613 613 614 617 618 618 618 620 622 622 623 624 625 625 627 627 628 628 629 630 632 634 634 635 635 636 637 637 639 639 641 642 642 643 643 644 645 648 649 650 649 651 651 653 654 654 655 655 656 658 659 660 661 663 664 664 665 667 668 668 669 669 669 672 673 674 674 677 678 678 678 680 681 681 684 684 685 686 688 689 689 691 691 692 695 698 698 699 700 700 702 703 705 706 708 709 709 711 712 712 713 715 715 718 718 719 719 722 724 725 724 724 724 724 0 0 0 0 0 0 0 0 0 0 0 0 0 0 0 0 0 0 0 0 0 0 0 0 0 0 0 0 0 0 0 0 0 0 0 0 0 0 0 0 0 0 0 0 0 3718 3718 3759 3718 3718 3759 3759 3759 3718 3718 3759 3759 3759 3759 3842 3842 3759 3842 3842 3759 3759 3800 3800 3842 3842 3842 3842 3842 3842 3842 3842 3842 3842 3842 3842 3842 3842 3842 3842 3800 3842 3842 3842 3842 3842 3842 3842 3842 3842 3759 3718 3718 3679 3679 3679 3640 3640 3640 3602 3565 3565 3528 3528 3528 3528 3565 3528 3528 3423 3423 3423 3423 3423 3423 3390 3390 3390 3357 3324 3293 3293 3293 3293 3293 3262 3231 3201 3172 3143 3143 3143 3143 3143 3143 3143 3143 3143 3143 3143 3143
    0 0 0 0 0 0 0 0 0 0 0 0 0 0 0 0 0 0 0 0 0 0 0 0 0 0 0 0 0 0 0 0 0 0 0 0 0 0 0 0 0 0 0 0 0 0 0 0 0 0 0 0 0 0 0 0 0 0 0 0 0 0 0 0 0 0 0 0 0 0 0 0 0 0 0 0 0 0 0 0 0 0 0 2033 2045 2057 2057 2057 2069 2069 2082 2095 2095 2095 2095 2107 2107 2107 2107 2107 2107 2120 2120 2120 2120 2120 2120 2120 2120 2120 2120 2120 2120 2120 2133 2133 2133 2120 2133 2133 2133 2133 2133 2147 2133 2147 2133 2133 0 0 0 0 3390 3390 3390 3423 3423 3423 3423 3423 3423 3423 3423 3423 3423 3423 3423 3423 3423 3423 3458 3458 3458 3423 3458 3458 3458 3458 3458 3458 3458 3458 3458 3458 3458 3458 3458 3458 3493 3493 3493 3493 3458 3493 3493 3493 3458 3458 3458 3458 3458 3458 3458 3493 3493 3493 3493 3493 3493 3493 3528 3528 3528 3528 3528 3565 3528 3528 3528 3528 3528 3528 3528 3528 3528 3528 3528 3565 3565 3528 3528 3493 1100 1100 1093 1090 1083 1066 1060 1056 1056 1053 1050 1047 1044 1044 1040 1040 1037 1037 1037 1037 1034 1034 1034 1034 1031 1034 1031 1031 1031 1031 1031 1031 1031 1031 1031 1031 1031 1031 1031 1031 1031 1031 1031 1031 1031 1031 1031 1031 1034 1034 1034 1031 1034 1034 1034 1037 1037 1040 1040 1044 1044 1047 1047 1050 1050 1053 1053 1056 1060 1063 1063 1069 1073 1079 1083 1083 1086 1086 1086 1086 1090 1090 1086 1093 1093 1097 1100 1100 1100 0 0 0 0 0 0 0 0 0 0 0 0 0 0 0 0 0 0 0 0 0 0 0 0 0 0 0 0 0 0 578 578 579 580 581 582 582 583 584 584 584 585 585 586 587 587 588 589 590 591 591 592 593 593 594 595 595 596 597 598 599 600 601 601 603 604 605 605 605 606 607 607 608 608 609 610 610 611 612 612 613 613 614 617 618 619 619 620 621 622 623 624 625 625 627 627 628 628 630 630 632 634 634 635 635 635 636 637 638 639 641 641 642 642 643 644 645 648 649 650 649 651 651 653 653 654 655 655 656 658 659 660 661 663 664 664 665 667 668 668 669 669 670 672 673 673 674 677 678 678 678 680 681 681 682 684 685 686 686 688 689 689 691 692 696 696 698 698 699 700 702 702 705 706 708 708 708 709 711 712 713 713 715 716 718 719 719 722 725 725 724 724 725 725 0 0 0 0 0 0 0 0 0 0 0 0 0 0 0 0 0 0 0 0 0 0 0 0 0 0 0 0 0 0 0 0 0 0 0 0 0 0 0 0 0 0 0 0 3679 3718 3718 3718 3718 3718 3759 3759 3759 3718 3718 3718 3759 3759 3759 3759 3718 3759 3842 3842 3759 3800 3800 3800 3842 3842 3842 3842 3842 3842 3842 3842 3842 3842 3842 3842 3842 3842 3842 3842 3800 3842 3842 3842 3842 3842 3842 3842 3842 3842 3759 3718 3718 3718 3679 3679 3679 3640 3640 3602 3565 3565 3565 3528 3565 3565 3565 3528 3528 3423 3423 3423 3423 3423 3423 3423 3423 3390 3390 3324 3324 3293 3293 3293 3293 3231 3231 3201 3172 3143 3143 3143 3143 3143 3143 3172 3172 3172 3143 3143 3143
    0 0 0 0 0 0 0 0 0 0 0 0 0 0 0 0 0 0 0 0 0 0 0 0 0 0 0 0 0 0 0 0 0 0 0 0 0 0 0 0 0 0 0 0 0 0 0 0 0 0 0 0 0 0 0 0 0 0 0 0 0 0 0 0 0 0 0 0 0 0 0 0 0 0 0 0 0 0 0 0 0 0 0 2033 2045 2057 2057 2057 2069 2082 2082 2095 2095 2095 2095 2107 2107 2107 2107 2107 2107 2107 2107 2107 2107 2120 2120 2120 2120 2120 2120 2120 2120 2120 2133 2120 2133 2120 2133 2147 2133 2147 2133 2147 2147 2147 2133 0 0 0 0 0 0 3390 3390 3390 3423 3423 3423 3423 3423 3423 3423 3423 3423 3423 3423 3423 3423 3458 3458 3458 3458 3458 3458 3458 3458 3458 3458 3423 3458 3423 3458 3423 3458 3458 3458 3458 3458 3458 3458 3458 3458 3458 3423 3458 3423 3423 3458 3458 3458 3458 3458 3493 3493 3493 3493 3493 3493 3493 3493 3528 3528 3528 3528 3528 3528 3528 3528 3528 3528 3528 3528 3528 3528 3528 3528 3565 3565 3528 3528 3528 1100 1100 1097 1097 1063 1063 1056 1053 1053 1053 1050 1047 1044 1040 1040 1037 1037 1034 1034 1034 1034 1034 1034 1034 1031 1031 1031 1031 1031 1031 1031 1031 1031 1031 1031 1031 1031 1031 1031 1031 1028 1031 1031 1031 1031 1031 1031 1031 1031 1034 1034 1034 1034 1034 1034 1037 1040 1040 1044 1044 1044 1047 1047 1050 1050 1053 1053 1056 1060 1060 1063 1069 1073 1076 1083 1083 1086 1086 1086 1086 1090 1090 1090 1093 1097 1097 1100 1100 1100 0 0 0 0 0 0 0 0 0 0 0 0 0 0 0 0 0 0 0 0 0 0 0 0 0 0 0 0 0 578 579 579 579 580 580 581 582 583 584 584 585 585 586 587 587 587 588 589 590 591 591 591 592 593 594 595 595 596 597 597 599 599 601 601 603 604 605 605 605 606 607 608 608 609 609 610 610 611 612 612 613 613 614 617 618 618 618 621 622 622 623 624 625 625 627 627 627 628 629 630 631 632 634 634 635 635 636 637 638 639 641 642 642 643 643 644 645 648 649 650 649 650 651 653 653 654 655 655 656 658 659 660 661 663 663 664 665 667 668 668 669 669 670 672 673 673 674 676 678 678 678 680 680 681 682 684 684 685 686 688 689 689 692 695 696 696 698 698 699 700 700 702 703 705 706 708 708 709 711 712 713 713 715 716 718 719 721 722 724 725 722 724 724 725 0 0 0 0 0 0 0 0 0 0 0 0 0 0 0 0 0 0 0 0 0 0 0 0 0 0 0 0 0 0 0 0 0 0 0 0 0 0 0 0 0 0 0 0 0 3718 3718 3718 3718 3718 3718 3759 3759 3718 3759 3759 3800 3759 3759 3759 3759 3800 3800 3842 3800 3800 3842 3842 3842 3842 3842 3842 3842 3842 3800 3842 3842 3842 3842 3842 3842 3842 3842 3842 3800 3800 3842 3842 3842 3842 3842 3842 3842 3842 3759 3759 3718 3718 3718 3679 3679 3679 3679 3640 3565 3565 3565 3565 3565 3528 3565 3528 3528 3458 3423 3423 3423 3423 3423 3423 3423 3390 3390 3357 3324 3324 3324 3293 3293 3262 3231 3231 3201 3201 3143 3143 3143 3143 3143 3172 3172 3172 3143 3143 3115
    0 0 0 0 0 0 0 0 0 0 0 0 0 0 0 0 0 0 0 0 0 0 0 0 0 0 0 0 0 0 0 0 0 0 0 0 0 0 0 0 0 0 0 0 0 0 0 0 0 0 0 0 0 0 0 0 0 0 0 0 0 0 0 0 0 0 0 0 0 0 0 0 0 0 0 0 0 0 0 0 0 0 2033 2045 2045 2057 2057 2057 2069 2082 2082 2095 2095 2095 2095 2107 2107 2107 2107 2107 2107 2107 2107 2107 2107 2107 2107 2120 2120 2120 2120 2120 2133 2133 2133 2133 2147 2147 2160 2160 2147 2147 2147 2147 2147 2147 2133 0 0 0 0 0 0 3357 3357 3390 3390 3390 3390 3390 3423 3423 3423 3423 3423 3423 3458 3458 3423 3458 3458 3458 3458 3458 3458 3458 3458 3423 3423 3423 3423 3423 3423 3423 3458 3458 3458 3458 3423 3458 3458 3458 3458 3423 3423 3423 3423 3423 3458 3458 3458 3458 3458 3458 3493 3493 3493 3493 3493 3493 3493 3528 3528 3528 3528 3528 3528 3528 3528 3493 3528 3493 3528 3493 3528 3528 3528 3528 3528 3528 3528 3528 1097 1097 1097 1097 1063 1063 1060 1056 1053 1053 1050 1047 1044 1040 1040 1037 1037 1037 1034 1037 1034 1034 1034 1034 1031 1031 1031 1031 1031 1031 1031 1031 1031 1031 1031 1031 1031 1031 1031 1031 1031 1031 1031 1031 1031 1031 1031 1031 1034 1034 1034 1034 1034 1034 1037 1037 1040 1040 1040 1044 1044 1047 1047 1050 1050 1053 1053 1056 1060 1060 1063 1069 1073 1079 1083 1083 1086 1086 1086 1086 1086 1090 1090 1093 1097 1097 1104 1104 1122 1122 1122 0 0 0 0 0 0 0 0 0 0 0 0 0 0 0 0 0 0 0 0 0 0 0 0 0 0 0 578 578 578 579 580 580 581 582 583 584 584 584 585 585 586 587 587 588 589 589 590 591 591 592 592 593 594 595 596 597 598 599 599 600 600 601 604 605 605 605 606 607 607 608 608 609 609 610 611 612 612 613 613 614 615 618 619 620 621 622 622 623 624 625 625 625 627 627 628 629 630 631 634 634 635 635 636 636 637 638 639 641 641 642 643 644 644 645 648 649 650 649 650 651 653 653 654 655 655 656 658 659 660 661 663 663 664 665 667 667 668 669 669 670 672 673 673 674 676 677 678 678 680 680 681 682 684 684 685 685 688 688 689 691 695 696 696 698 698 699 700 700 702 703 705 706 708 708 709 711 712 713 713 715 716 716 719 721 722 724 725 725 724 725 725 0 0 0 0 0 0 0 0 0 0 0 0 0 0 0 0 0 0 0 0 0 0 0 0 0 0 0 0 0 0 0 0 0 0 0 0 0 0 0 0 0 0 0 0 0 3718 3718 3718 3718 3718 3759 3759 3759 3718 3759 3759 3759 3800 3759 3759 3759 3800 3800 3842 3800 3800 3800 3842 3800 3800 3800 3800 3800 3800 3800 3800 3842 3842 3842 3842 3842 3842 3842 3842 3800 3800 3842 3842 3842 3842 3842 3842 3759 3759 3718 3718 3718 3718 3718 3679 3679 3679 3640 3640 3602 3565 3565 3565 3565 3565 3565 3528 3528 3458 3423 3423 3423 3423 3423 3423 3423 3423 3423 3390 3390 3324 3324 3324 3293 3262 3262 3231 3201 3201 3201 3201 3143 3231 3172 3172 3172 3172 3172 3143 3115
    0 0 0 0 0 0 0 0 0 0 0 0 0 0 0 0 0 0 0 0 0 0 0 0 0 0 0 0 0 0 0 0 0 0 0 0 0 0 0 0 0 0 0 0 0 0 0 0 0 0 0 0 0 0 0 0 0 0 0 0 0 0 0 0 0 0 0 0 0 0 0 0 0 0 0 0 0 0 0 0 0 0 2045 2045 2045 2057 2057 2057 2069 2069 2082 2095 2095 2095 2095 2107 2107 2107 2107 2107 2107 2107 2120 2120 2120 2120 2120 2120 2133 2133 2120 2120 2133 2147 2160 2160 2174 2174 2174 2174 2174 2160 2160 2160 2147 2147 2147 0 0 0 0 0 0 3324 3357 3357 3390 3390 3390 3423 3423 3423 3423 3423 3423 3423 3458 3458 3423 3458 3458 3458 3458 3458 3423 3458 3458 3423 3458 3423 3458 3423 3423 3423 3423 3423 3423 3458 3423 3458 3458 3458 3458 3458 3423 3423 3423 3423 3458 3458 3458 3458 3458 3458 3493 3493 3493 3493 3493 3493 3493 3493 3528 3528 3528 3528 3528 3528 3528 3493 3493 3493 3493 3493 3528 3528 3528 3528 3528 3528 3528 3528 1097 1097 1097 1097 1097 1063 1056 1053 1053 1047 1047 1044 1044 1040 1040 1037 1037 1034 1034 1037 1034 1034 1034 1031 1031 1031 1031 1031 1031 1031 1031 1031 1031 1031 1031 1031 1031 1031 1031 1031 1031 1031 1031 1031 1031 1031 1031 1031 1034 1034 1034 1034 1034 1034 1037 1037 1040 1040 1044 1044 1044 1047 1047 1050 1050 1053 1053 1056 1056 1060 1063 1069 1073 1079 1083 1083 1086 1086 1086 1086 1086 1090 1090 1093 1097 1100 1104 1104 0 1125 1125 0 0 0 0 0 0 0 0 0 0 0 0 0 0 0 0 0 0 0 0 0 0 0 0 0 0 0 577 578 578 578 579 580 580 581 583 583 584 584 585 586 587 587 587 588 589 589 590 590 591 591 592 593 594 595 596 597 598 599 599 600 600 601 604 605 605 605 606 607 607 608 608 609 609 610 611 612 612 613 613 614 615 617 618 619 620 622 622 623 624 624 625 625 627 627 628 628 630 631 634 634 634 635 635 636 637 638 639 641 642 642 643 644 645 645 648 649 649 649 650 651 653 653 654 654 655 656 658 659 660 661 663 663 664 664 665 667 668 669 669 669 670 672 673 674 676 677 678 678 680 680 681 682 684 684 685 685 686 688 689 691 692 696 696 698 698 698 699 700 702 703 705 706 706 708 708 709 712 713 713 715 715 716 718 719 721 722 722 724 724 725 725 727 0 0 0 0 0 0 0 0 0 0 0 0 0 0 0 0 0 0 0 0 0 0 0 0 0 0 0 0 0 0 0 0 0 0 0 0 0 0 0 0 0 0 0 0 3759 3759 3759 3718 3759 3759 3800 3759 3718 3759 3759 3759 3759 3759 3759 3759 3759 3800 3842 3800 3800 3800 3842 3800 3800 3759 3759 3759 3759 3759 3800 3800 3842 3842 3842 3842 3842 3800 3842 3800 3800 3842 3842 3842 3842 3842 3842 3759 3759 3718 3718 3718 3718 3718 3679 3679 3679 3640 3640 3602 3565 3565 3565 3565 3565 3565 3528 3528 3528 3423 3423 3423 3423 3423 3423 3423 3423 3390 3390 3357 3357 3324 3324 3293 3262 3262 3231 3231 3231 3231 3231 3231 3231 3201 3201 3201 3172 3172 3143 3143
    0 0 0 0 0 0 0 0 0 0 0 0 0 0 0 0 0 0 0 0 0 0 0 0 0 0 0 0 0 0 0 0 0 0 0 0 0 0 0 0 0 0 0 0 0 0 0 0 0 0 0 0 0 0 0 0 0 0 0 0 0 0 0 0 0 0 0 0 0 0 0 0 0 0 0 0 0 0 0 0 0 0 2045 2045 2045 2057 2057 2057 2069 2082 2082 2095 2095 2095 2095 2095 2107 2107 2107 2107 2107 2107 2120 2120 2120 2120 2120 2133 2147 2160 2147 2160 2174 2174 2187 2187 2187 2174 2187 2187 2174 2174 2160 2174 2160 2160 2147 0 0 0 0 0 3324 3357 3357 3357 3390 3390 3390 3390 3390 3423 3423 3423 3423 3423 3458 3458 3458 3458 3458 3458 3423 3423 3458 3458 3458 3423 3458 3423 3423 3423 3423 3423 3423 3458 3458 3423 3423 3458 3458 3458 3458 3458 3423 3423 3423 3423 3458 3458 3423 3423 3423 3458 3458 3458 3458 3458 3458 3493 3493 3493 3528 3528 3528 3528 3528 3528 3528 3493 3458 3528 3493 3493 3493 3493 3528 3528 3493 3493 3493 3493 1097 1100 1100 1100 1100 1063 1056 1053 1053 1047 1047 1044 1044 1040 1040 1037 1037 1037 1037 1037 1034 1034 1034 1031 1031 1031 1031 1031 1031 1031 1031 1031 1031 1031 1031 1031 1031 1031 1031 1031 1031 1031 1031 1031 1031 1031 1031 1031 1034 1034 1034 1034 1034 1037 1037 1037 1040 1040 1040 1044 1044 1047 1047 1050 1050 1053 1053 1056 1056 1060 1063 1066 1069 1076 1079 1083 1083 1086 1086 1086 1086 1090 1090 1097 1104 1107 1107 1125 1125 1129 1129 0 0 0 0 0 0 0 0 0 0 0 0 0 0 0 0 0 0 0 0 0 0 0 0 0 0 0 577 578 578 578 579 579 580 581 582 583 583 584 585 585 586 587 587 588 589 589 590 590 591 591 592 592 593 594 595 596 597 598 599 600 600 601 604 605 605 605 605 606 607 608 608 609 609 610 611 612 612 613 613 613 614 615 618 618 620 621 622 622 624 624 625 625 627 627 628 628 630 631 632 634 634 635 635 636 637 638 639 641 642 642 643 644 645 645 648 648 649 649 650 651 653 653 654 654 655 656 658 659 660 661 663 663 664 664 665 667 668 669 669 669 670 672 673 674 676 677 678 678 680 681 681 682 684 684 684 685 686 688 689 691 692 693 695 696 698 698 699 700 702 702 705 705 706 706 708 709 711 713 713 715 716 716 718 719 721 722 722 724 724 725 727 727 730 0 0 0 0 0 0 0 0 0 0 0 0 0 0 0 0 0 0 0 0 0 0 0 0 0 0 0 0 0 0 0 0 0 0 0 0 0 0 0 0 0 0 0 3718 3718 3718 3718 3718 3759 3800 3800 3842 3718 3718 3759 3759 3718 3718 3718 3759 3759 3759 3800 3800 3800 3842 3800 3800 3759 3718 3718 3718 3759 3759 3800 3800 3800 3842 3842 3842 3800 3800 3759 3718 3718 3718 3718 3842 3842 3800 3718 3718 3718 3718 3718 3679 3718 3679 3679 3679 3640 3640 3602 3565 3565 3565 3565 3565 3565 3528 3528 3528 3528 3423 3423 3423 3423 3423 3390 3423 3390 3390 3357 3324 3324 3324 3293 3262 3262 3231 3231 3231 3231 3231 3231 3231 3231 3172 3172 3172 3172 3143 3115
    0 0 0 0 0 0 0 0 0 0 0 0 0 0 0 0 0 0 0 0 0 0 0 0 0 0 0 0 0 0 0 0 0 0 0 0 0 0 0 0 0 0 0 0 0 0 0 0 0 0 0 0 0 0 0 0 0 0 0 0 0 0 0 0 0 0 0 0 0 0 0 0 0 0 0 0 0 0 0 0 0 0 2045 2045 2045 2057 2057 2057 2069 2082 2082 2095 2095 2095 2095 2095 2107 2107 2107 2107 2107 2107 2120 2120 2120 2133 2133 2160 2160 2187 2187 2174 2187 2187 2187 2187 2201 2187 2187 2187 2187 2174 2174 2174 2174 2174 2147 0 0 0 0 0 3324 3324 3324 3357 3357 3390 3390 3390 3423 3423 3423 3423 3423 3423 3423 3458 3458 3458 3458 3423 3423 3423 3423 3423 3423 3423 3423 3423 3423 3423 3423 3423 3423 3458 3423 3423 3458 3458 3458 3458 3458 3458 3458 3423 3423 3423 3458 3458 3423 3423 3423 3458 3458 3493 3458 3458 3458 3493 3493 3493 3528 3528 3493 3528 3528 3528 3528 3458 3458 3493 3528 3458 3493 3493 3493 3493 3493 3493 3493 3493 1097 1097 1097 1097 1100 1063 1060 1056 1056 1047 1047 1044 1044 1044 1044 1040 1037 1037 1037 1037 1034 1034 1034 1031 1031 1031 1031 1031 1031 1031 1031 1031 1031 1031 1034 1031 1031 1031 1034 1034 1034 1034 1034 1034 1031 1031 1031 1034 1034 1034 1034 1037 1037 1037 1040 1040 1040 1044 1044 1044 1044 1047 1047 1050 1050 1053 1053 1056 1056 1060 1063 1063 1069 1076 1079 1083 1083 1083 1086 1086 1086 1090 1093 1100 1111 1118 1122 1125 1125 1129 1129 0 0 0 0 0 0 0 0 0 0 0 0 0 0 0 0 0 0 0 0 0 0 0 0 0 0 0 577 578 578 578 579 579 580 581 582 583 583 584 584 585 586 586 587 588 588 589 590 590 591 592 592 593 593 594 595 596 597 598 599 600 600 601 603 604 604 605 605 606 607 607 608 609 609 610 611 611 612 613 613 614 615 615 618 618 619 621 621 622 623 624 625 625 625 627 628 628 630 631 631 632 634 635 635 636 637 638 639 641 642 642 643 644 645 647 648 648 649 649 650 651 653 653 653 654 654 655 656 659 660 661 661 663 663 664 665 667 668 669 669 669 670 672 673 674 676 677 678 680 680 681 682 682 684 684 684 685 686 686 688 691 691 692 695 696 696 698 699 700 702 702 703 705 706 706 708 709 711 712 713 715 715 716 718 718 719 721 722 724 724 727 727 727 0 0 0 0 0 0 0 0 0 0 0 0 0 0 0 0 0 0 0 0 0 0 0 0 0 0 0 0 0 0 0 0 0 0 0 0 0 0 0 0 0 0 0 0 3759 3759 3759 3718 3759 3759 3800 3800 3800 3842 3759 3759 3759 3759 3759 3759 3759 3759 3759 3800 3800 3800 3800 3800 3759 3759 3718 3718 3718 3759 3759 3800 3800 3800 3800 3800 3800 3800 3800 3759 3718 3718 3718 3718 3718 3842 3718 3718 3800 3759 3718 3679 3679 3679 3679 3640 3640 3602 3602 3565 3565 3565 3528 3528 3528 3528 3528 3528 3493 3493 3493 3423 3423 3423 3423 3390 3423 3390 3390 3357 3324 3324 3293 3293 3262 3262 3231 3231 3231 3231 3231 3231 3231 3231 3201 3201 3172 3172 3143 3143
    0 0 0 0 0 0 0 0 0 0 0 0 0 0 0 0 0 0 0 0 0 0 0 0 0 0 0 0 0 0 0 0 0 0 0 0 0 0 0 0 0 0 0 0 0 0 0 0 0 0 0 0 0 0 0 0 0 0 0 0 0 0 0 0 0 0 0 0 0 0 0 0 0 0 0 0 0 0 0 0 0 2033 2045 2045 2045 2057 2057 2057 2069 2082 2082 2095 2095 2095 2095 2095 2095 2107 2107 2107 2107 2120 2147 2147 2147 2160 2160 2174 2187 2187 2187 2187 2201 2201 2201 2201 2201 2187 2187 2187 2187 2187 2174 2174 2174 2174 2147 0 0 0 0 0 3390 3390 3357 3357 3357 3390 3390 3390 3390 3423 3423 3423 3423 3423 3423 3458 3458 3458 3458 3423 3423 3423 3423 3423 3423 3423 3458 3423 3423 3423 3458 3458 3458 3458 3423 3423 3423 3423 3423 3423 3458 3458 3423 3423 3423 3423 3423 3423 3423 3423 3423 3423 3423 3458 3458 3458 3458 3458 3493 3493 3493 3493 3493 3493 3528 3493 3458 3458 3458 3458 3458 3458 3493 3493 3493 3493 3528 3528 3528 1093 1097 1097 1097 1100 1100 1063 1056 1056 1056 1047 1047 1044 1044 1044 1040 1040 1040 1040 1037 1037 1034 1034 1034 1034 1031 1031 1031 1031 1031 1031 1031 1031 1031 1034 1034 1034 1034 1034 1034 1034 1034 1034 1034 1031 1034 1034 1034 1034 1034 1037 1037 1040 1040 1040 1040 1044 1044 1044 1044 1044 1047 1047 1047 1047 1050 1053 1053 1056 1056 1060 1063 1063 1069 1073 1079 1079 1083 1083 1086 1086 1090 1093 1097 1107 1114 1118 1122 1125 1125 1125 1129 0 0 0 0 0 0 0 0 0 0 0 0 0 0 0 0 0 0 0 0 0 0 0 0 0 0 0 576 576 577 578 578 579 580 581 582 583 584 584 585 586 586 587 587 588 588 588 589 590 591 591 592 592 593 594 595 596 596 597 598 599 600 600 603 604 604 604 605 605 606 607 608 608 609 610 611 612 612 613 613 614 614 615 618 619 619 621 621 622 623 624 624 625 625 627 627 628 630 631 632 634 634 635 635 636 637 639 639 641 642 642 643 644 645 647 648 649 649 649 650 651 653 653 653 654 654 655 656 658 659 660 661 663 663 664 665 667 668 669 669 669 669 670 673 674 676 677 678 678 680 681 681 682 684 684 684 685 685 686 689 691 691 695 696 696 696 698 699 700 702 702 703 705 706 706 708 709 711 712 713 715 715 716 718 719 719 721 724 724 724 725 725 725 0 0 0 0 0 0 0 0 0 0 0 0 0 0 0 0 0 0 0 0 0 0 0 0 0 0 0 0 0 0 0 0 0 0 0 0 0 0 0 0 0 0 0 3800 3759 3759 3759 3718 3759 3759 3800 3800 3842 3842 3842 3842 3759 3759 3759 3759 3759 3759 3759 3800 3800 3800 3842 3759 3759 3718 3718 3718 3718 3718 3759 3759 3800 3800 3800 3800 3842 3800 3800 3759 3718 3718 3718 3718 3718 3800 3718 3718 3759 3718 3718 3679 3679 3679 3679 3640 3602 3602 3602 3602 3602 3565 3565 3528 3528 3528 3528 3528 3528 3493 3493 3423 3423 3423 3390 3390 3423 3390 3390 3357 3324 3324 3293 3293 3262 3262 3231 3231 3231 3231 3231 3231 3231 3231 3201 3201 3172 3172 3172 3115
    0 0 0 0 0 0 0 0 0 0 0 0 0 0 0 0 0 0 0 0 0 0 0 0 0 0 0 0 0 0 0 0 0 0 0 0 0 0 0 0 0 0 0 0 0 0 0 0 0 0 0 0 0 0 0 0 0 0 0 0 0 0 0 0 0 0 0 0 0 0 0 0 0 0 0 0 0 0 0 0 0 2033 2033 2045 2045 2057 2057 2057 2069 2082 2082 2095 2095 2095 2095 2095 2095 2107 2107 2107 2120 2120 2160 2160 2160 2174 2174 2187 2187 2187 2187 2201 2201 2201 2201 2201 2201 2187 2187 2187 2187 2187 2174 2174 2174 2174 2160 2147 2133 0 0 0 0 3390 3357 3357 3390 3390 3390 3390 3390 3423 3423 3423 3423 3423 3423 3458 3458 3458 3423 3423 3423 3423 3423 3423 3423 3423 3423 3423 3423 3423 3423 3423 3423 3423 3423 3423 3423 3423 3423 3423 3458 3458 3423 3423 3423 3423 3423 3423 3423 3423 3423 3423 3423 3458 3458 3458 3458 3493 3493 3528 3493 3493 3493 3458 3458 3458 3458 3458 3458 3458 3458 3458 3458 3493 3493 3493 3493 3528 3528 3528 1097 1097 1097 1093 1100 1063 1056 1056 1056 1050 1047 1047 1047 1044 1044 1044 1040 1040 1040 1037 1037 1034 1034 1034 1034 1031 1031 1031 1031 1031 1031 1031 1031 1034 1034 1034 1034 1034 1034 1034 1037 1037 1037 1034 1034 1037 1034 1037 1037 1037 1040 1040 1040 1040 1040 1040 1044 1044 1044 1044 1047 1047 1047 1050 1050 1053 1053 1056 1056 1060 1063 1063 1069 1073 1076 1079 1083 1083 1086 1090 1090 1093 1104 1111 1114 1118 1122 1125 1125 1129 1129 0 0 0 0 0 0 0 0 0 0 0 0 0 0 0 0 0 0 0 0 0 0 0 0 0 0 0 0 575 576 577 578 578 580 580 582 582 583 584 584 585 586 587 587 588 588 588 589 589 590 591 592 592 593 594 595 596 596 597 598 599 599 600 601 603 603 604 605 605 606 607 608 608 609 609 610 611 612 612 613 614 615 617 618 619 620 620 621 622 623 623 624 625 625 627 627 628 629 631 631 632 634 635 635 636 638 639 639 641 641 642 643 644 644 647 648 649 649 649 650 651 651 653 653 654 654 655 656 658 659 660 661 661 663 664 667 668 668 669 668 669 669 670 672 674 674 677 678 678 680 680 681 682 682 684 684 685 686 686 689 691 691 692 696 696 696 698 699 700 702 702 703 705 706 706 708 709 711 712 713 715 715 718 718 719 719 721 724 724 724 725 725 0 0 0 0 0 0 0 0 0 0 0 0 0 0 0 0 0 0 0 0 0 0 0 0 0 0 0 0 0 0 0 0 0 0 0 0 0 0 0 0 0 0 0 0 3842 3759 3759 3759 3759 3759 3759 3800 3800 3842 3842 3842 3842 3759 3759 3759 3759 3759 3759 3759 3800 3800 3800 3842 3759 3718 3718 3718 3718 3718 3718 3718 3759 3759 3759 3800 3800 3759 3718 3718 3718 3679 3718 3718 3718 3718 3800 3718 3759 3759 3718 3679 3679 3679 3679 3640 3602 3602 3602 3565 3602 3602 3565 3528 3528 3528 3493 3493 3493 3493 3493 3493 3423 3423 3423 3390 3390 3390 3390 3390 3390 3357 3324 3324 3293 3262 3262 3231 3231 3231 3231 3231 3231 3231 3231 3201 3201 3172 3143 3115 3143
    0 0 0 0 0 0 0 0 0 0 0 0 0 0 0 0 0 0 0 0 0 0 0 0 0 0 0 0 0 0 0 0 0 0 0 0 0 0 0 0 0 0 0 0 0 0 0 0 0 0 0 0 0 0 0 0 0 0 0 0 0 0 0 0 0 0 0 0 0 0 0 0 0 0 0 0 0 0 0 0 2021 2033 2033 2045 2045 2057 2057 2057 2069 2069 2082 2082 2082 2095 2095 2095 2095 2107 2107 2107 2120 2133 2174 2174 2174 2187 2187 2187 2187 2201 2201 2201 2201 2201 2201 2201 2201 2187 2187 2187 2187 2187 2174 2174 2174 2174 2160 2147 2147 0 0 0 0 3423 3390 3357 3390 3390 3390 3390 3423 3423 3423 3423 3423 3458 3458 3458 3458 3458 3458 3423 3423 3423 3423 3423 3423 3423 3423 3423 3423 3423 3423 3423 3423 3423 3423 3423 3423 3458 3458 3423 3458 3458 3458 3458 3458 3423 3458 3458 3423 3423 3423 3458 3458 3458 3458 3458 3458 3493 3528 3528 3493 3458 3458 3458 3458 3458 3458 3458 3458 3458 3458 3458 3458 3458 3493 3493 3493 3528 3528 3528 1097 1097 1097 1097 1100 1063 1056 1056 1056 1056 1047 1047 1047 1047 1047 1044 1044 1044 1044 1040 1040 1037 1037 1034 1034 1034 1031 1031 1031 1031 1031 1031 1031 1031 1034 1034 1034 1034 1034 1034 1037 1037 1037 1040 1040 1037 1037 1037 1037 1037 1040 1040 1040 1040 1040 1044 1044 1044 1044 1044 1047 1047 1050 1050 1050 1053 1056 1056 1056 1060 1063 1066 1069 1073 1076 1076 1079 1083 1086 1090 1090 1097 1107 1111 1114 1118 1122 1125 1125 1129 1133 1140 0 0 0 0 0 0 0 0 0 0 0 0 0 0 0 0 0 0 0 0 0 0 0 0 0 0 0 575 577 577 578 578 579 580 582 582 583 584 584 585 586 587 587 588 588 588 588 589 590 591 591 592 593 594 595 596 596 596 597 598 599 600 601 603 603 604 604 605 605 606 607 608 609 609 610 611 612 612 613 614 614 615 617 618 619 620 621 621 622 623 624 625 625 627 627 628 629 630 631 631 632 635 636 637 638 639 639 641 641 642 643 644 644 645 647 647 649 648 649 650 651 651 653 653 654 654 655 658 659 659 660 660 663 664 667 668 668 668 668 669 669 670 672 673 674 676 677 678 680 680 681 682 684 684 684 685 686 688 689 691 691 692 692 692 695 696 698 700 700 702 703 705 706 706 708 709 711 712 713 715 716 716 718 719 719 721 724 724 724 725 725 0 0 0 0 0 0 0 0 0 0 0 0 0 0 0 0 0 0 0 0 0 0 0 0 0 0 0 0 0 0 0 0 0 0 0 0 0 0 0 0 0 0 0 0 3842 3759 3759 3759 3759 3759 3759 3800 3800 3842 3842 3842 3842 3800 3759 3759 3759 3759 3759 3759 3800 3800 3800 3800 3718 3718 3718 3718 3679 3718 3718 3718 3718 3759 3759 3759 3718 3718 3679 3679 3679 3679 3679 3679 3718 3718 3800 3759 3759 3759 3759 3718 3679 3640 3640 3602 3565 3565 3565 3565 3602 3565 3565 3528 3528 3528 3493 3493 3493 3528 3493 3493 3423 3423 3423 3390 3390 3423 3390 3390 3390 3357 3324 3324 3293 3262 3262 3262 3231 3231 3231 3231 3231 3201 3201 3201 3143 3143 3115 3115 3115
    0 0 0 0 0 0 0 0 0 0 0 0 0 0 0 0 0 0 0 0 0 0 0 0 0 0 0 0 0 0 0 0 0 0 0 0 0 0 0 0 0 0 0 0 0 0 0 0 0 0 0 0 0 0 0 0 0 0 0 0 0 0 0 0 0 0 0 0 0 0 0 0 0 0 0 0 0 0 0 0 2033 2033 2045 2045 2045 2057 2057 2057 2069 2069 2082 2082 2082 2095 2095 2095 2095 2107 2107 2120 2147 2160 2174 2187 2187 2187 2187 2187 2187 2201 2201 2201 2201 2201 2201 2201 2201 2187 2187 2187 2187 2187 2174 2174 2174 2174 2160 2160 0 0 0 0 0 3458 3423 3390 3390 3390 3390 3390 3423 3423 3423 3423 3423 3423 3423 3423 3423 3423 3458 3458 3423 3423 3423 3423 3423 3423 3423 3423 3423 3423 3423 3423 3423 3423 3423 3493 3458 3458 3458 3458 3458 3458 3458 3458 3458 3458 3458 3458 3458 3458 3458 3458 3458 3493 3458 3458 3493 3493 3528 3493 3493 3458 3458 3458 3458 3458 3458 3458 3458 3458 3423 3458 3458 3458 3458 3458 3493 3528 3528 3528 1097 1100 1093 1090 1100 1063 1060 1056 1056 1056 1050 1047 1050 1050 1047 1047 1047 1047 1047 1044 1044 1040 1040 1037 1034 1034 1034 1034 1031 1031 1031 1031 1031 1031 1034 1034 1034 1034 1037 1037 1040 1040 1040 1040 1044 1037 1037 1040 1040 1040 1040 1044 1044 1044 1044 1044 1044 1044 1044 1047 1047 1047 1050 1050 1053 1053 1056 1056 1056 1060 1063 1066 1069 1073 1076 1076 1079 1083 1086 1093 1097 1100 1107 1111 1114 1118 1122 1125 1125 1129 1133 1136 0 0 0 0 0 0 0 0 0 0 0 0 0 0 0 0 0 0 0 0 0 0 0 0 0 0 0 575 576 577 578 578 579 580 581 582 583 584 584 585 586 587 587 588 588 588 588 589 590 590 591 592 593 594 595 596 596 597 597 598 599 600 600 601 603 604 604 605 605 606 607 608 608 609 610 611 611 612 613 613 614 615 617 618 618 619 620 621 622 623 624 624 625 627 627 628 629 630 631 631 632 635 635 636 637 638 639 639 641 641 642 644 644 645 645 647 648 648 649 649 651 651 651 653 654 654 656 658 658 659 660 661 663 664 665 667 668 668 668 669 669 670 672 673 674 676 677 678 680 680 681 682 684 684 684 685 686 688 689 691 691 691 692 692 693 695 696 699 700 700 702 703 705 706 708 709 711 712 713 715 715 718 718 719 721 721 722 724 724 724 0 0 0 0 0 0 0 0 0 0 0 0 0 0 0 0 0 0 0 0 0 0 0 0 0 0 0 0 0 0 0 0 0 0 0 0 0 0 0 0 0 0 0 0 0 0 3759 3759 3759 3759 3800 3800 3800 3800 3842 3842 3842 3842 3759 3759 3759 3800 3759 3759 3759 3759 3759 3759 3759 3718 3718 3718 3718 3718 3718 3718 3718 3759 3759 3759 3759 3759 3718 3679 3679 3679 3679 3679 3679 3718 3800 3800 3759 3759 3759 3759 3718 3679 3640 3602 3565 3565 3565 3565 3565 3602 3602 3565 3528 3528 3528 3493 3493 3493 3493 3493 3493 3458 3423 3423 3423 3390 3390 3390 3390 3390 3357 3324 3293 3293 3262 3262 3262 3262 3262 3231 3231 3231 3201 3201 3201 3143 3115 3115 3115 3115
    0 0 0 0 0 0 0 0 0 0 0 0 0 0 0 0 0 0 0 0 0 0 0 0 0 0 0 0 0 0 0 0 0 0 0 0 0 0 0 0 0 0 0 0 0 0 0 0 0 0 0 0 0 0 0 0 0 0 0 0 0 0 0 0 0 0 0 0 0 0 0 0 0 0 0 0 0 0 0 0 2033 2033 2045 2045 2045 2057 2057 2057 2057 2069 2069 2082 2082 2095 2095 2095 2095 2107 2120 2120 2147 2160 2174 2174 2174 2174 2187 2187 2187 2187 2201 2201 2201 2201 2201 2201 2201 2187 2187 2187 2187 2187 2174 2174 2174 2174 2160 2147 0 0 0 0 3458 3458 3423 3390 3390 3390 3390 3390 3423 3423 3423 3423 3423 3423 3423 3458 3458 3458 3458 3458 3423 3423 3423 3423 3423 3423 3423 3423 3423 3423 3423 3423 3423 3423 3423 3423 3458 3458 3458 3458 3458 3493 3493 3493 3458 3458 3458 3458 3458 3458 3458 3458 3458 3493 3458 3458 3493 3493 3493 3493 3458 3458 3458 3458 3458 3458 3458 3458 3458 3458 3458 3458 3458 3458 3458 3493 3493 3528 3528 3493 1097 1100 1100 1093 1100 1060 1060 1056 1056 1056 1053 1050 1053 1053 1050 1050 1050 1050 1047 1047 1044 1040 1040 1037 1037 1034 1034 1034 1031 1031 1031 1031 1031 1031 1034 1034 1034 1037 1037 1040 1044 1044 1044 1044 1044 1040 1040 1044 1044 1044 1044 1044 1044 1044 1044 1044 1044 1044 1047 1047 1047 1050 1050 1050 1053 1056 1056 1056 1060 1060 1063 1066 1069 1073 1073 1076 1079 1083 1090 1097 1100 1107 1111 1114 1114 1122 1125 1125 1129 1129 1133 1136 0 0 0 0 0 0 0 0 0 0 0 0 0 0 0 0 0 0 0 0 0 0 0 0 0 0 0 575 576 577 578 578 579 580 581 582 583 583 584 585 586 587 587 588 588 588 588 588 590 590 591 592 593 593 595 595 596 596 597 598 599 599 600 601 601 603 604 604 605 606 607 608 608 609 610 610 611 612 613 614 615 615 617 618 618 619 620 621 622 623 623 624 625 627 627 628 630 630 631 631 632 634 635 636 636 638 638 639 641 641 642 643 643 645 645 647 648 648 648 649 650 651 651 653 654 654 655 658 658 659 660 660 663 664 664 667 667 668 668 669 669 670 672 673 674 676 677 678 678 680 681 682 684 684 684 685 686 688 689 691 691 691 692 692 693 695 696 698 699 700 702 703 706 706 708 709 709 712 712 715 715 716 718 719 719 721 721 722 722 724 0 0 0 0 0 0 0 0 0 0 0 0 0 0 0 0 0 0 0 0 0 0 0 0 0 0 0 0 0 0 0 0 0 0 0 0 0 0 0 0 0 0 0 0 0 0 3800 3759 3759 3759 3800 3759 3800 3800 3800 3800 3842 3800 3759 3759 3759 3800 3759 3759 3759 3759 3759 3759 3759 3718 3718 3759 3718 3718 3718 3718 3718 3759 3759 3718 3718 3718 3718 3718 3679 3679 3679 3679 3679 3718 3800 3800 3759 3759 3759 3759 3718 3679 3679 3602 3602 3565 3565 3640 3565 3602 3602 3602 3565 3565 3528 3528 3528 3493 3493 3493 3493 3458 3458 3423 3423 3390 3390 3390 3390 3357 3324 3293 3293 3293 3262 3262 3262 3262 3262 3262 3231 3231 3201 3201 3201 3115 3115 3087 3087 3087
    0 0 0 0 0 0 0 0 0 0 0 0 0 0 0 0 0 0 0 0 0 0 0 0 0 0 0 0 0 0 0 0 0 0 0 0 0 0 0 0 0 0 0 0 0 0 0 0 0 0 0 0 0 0 0 0 0 0 0 0 0 0 0 0 0 0 0 0 0 0 0 0 0 0 0 0 0 0 0 0 2033 2033 2045 2045 2045 2057 2057 2057 2057 2069 2069 2082 2082 2082 2095 2095 2095 2107 2120 2120 2147 2160 2174 2174 2174 2174 2174 2174 2187 2187 2187 2187 2201 2201 2201 2201 2201 2187 2187 2187 2187 2187 2174 2174 2174 2174 2160 0 0 0 0 0 3458 3458 3423 3423 3423 3390 3390 3390 3423 3423 3423 3423 3423 3423 3423 3423 3458 3458 3458 3458 3458 3458 3458 3423 3423 3423 3423 3423 3423 3423 3423 3458 3458 3493 3493 3493 3493 3493 3458 3458 3458 3493 3493 3493 3458 3423 3458 3458 3458 3458 3458 3458 3458 3493 3493 3458 3493 3493 3493 3458 3458 3458 3458 3458 3423 3423 3423 3458 3458 3423 3423 3458 3458 3458 3458 3493 3493 3528 3528 3493 1100 1100 1100 1100 1100 1056 1056 1056 1056 1053 1053 1053 1053 1053 1053 1053 1053 1050 1050 1047 1044 1044 1044 1040 1037 1037 1034 1034 1034 1031 1031 1031 1031 1031 1034 1034 1034 1037 1044 1044 1044 1047 1044 1044 1044 1044 1044 1044 1044 1044 1044 1044 1044 1044 1044 1044 1044 1047 1047 1047 1047 1047 1050 1050 1053 1056 1056 1056 1060 1063 1063 1066 1069 1073 1073 1076 1079 1086 1093 1100 1107 1111 1111 1114 1118 1122 1125 1125 1129 1129 1133 1133 0 0 0 0 0 0 0 0 0 0 0 0 0 0 0 0 0 0 0 0 0 0 0 0 0 0 0 0 576 577 578 578 579 580 582 582 583 583 584 584 585 586 587 588 588 588 588 589 590 591 591 592 593 593 594 595 595 596 597 597 598 599 600 601 601 603 604 604 605 606 606 607 608 609 610 610 611 612 613 614 615 617 617 618 618 619 621 622 622 623 623 623 624 625 627 628 630 630 631 631 632 634 635 636 636 637 638 639 639 641 641 642 643 644 645 645 647 647 648 648 649 650 651 653 654 654 655 656 658 659 660 661 663 664 665 667 667 668 667 668 669 670 672 673 674 676 677 678 678 680 681 682 684 684 685 685 686 688 689 691 691 691 692 692 693 695 696 698 699 700 702 703 705 706 708 708 709 711 713 715 716 716 718 719 719 721 721 722 722 0 0 0 0 0 0 0 0 0 0 0 0 0 0 0 0 0 0 0 0 0 0 0 0 0 0 0 0 0 0 0 0 0 0 0 0 0 0 0 0 0 0 0 0 0 0 0 3759 3759 3759 3759 3759 3759 3759 3759 3759 3800 3800 3800 3759 3759 3759 3759 3759 3759 3759 3759 3759 3759 3759 3718 3718 3718 3718 3718 3718 3718 3759 3759 3759 3718 3759 3759 3759 3718 3718 3718 3679 3679 3679 3800 3800 3759 3759 3759 3759 3718 3718 3640 3640 3565 3565 3565 3565 3640 3602 3602 3602 3602 3565 3565 3565 3528 3528 3493 3493 3493 3458 3458 3458 3458 3423 3390 3390 3390 3390 3357 3324 3293 3293 3293 3262 3262 3262 3262 3262 3262 3231 3231 3201 3201 3201 3172 3143 3087 3087 3087</data></dframe>
</opencv_storage>
