<?xml version="1.0"?>
<opencv_storage>
<dframe type_id="opencv-matrix">
  <rows>35</rows>
  <cols>640</cols>
  <dt>w</dt>
  <data>
    0 0 0 0 0 0 0 0 0 0 0 0 0 0 0 0 0 0 0 0 0 0 0 0 0 0 0 0 0 0 0 0 0 0 0 0 0 0 0 0 0 0 0 0 0 0 0 0 0 0 0 0 0 0 0 0 0 0 0 0 0 0 0 0 0 0 0 0 0 0 0 0 0 0 0 0 0 0 0 0 0 2057 2045 2045 2045 2057 2057 2057 2057 2069 2069 2082 2095 2095 2095 2095 2107 2107 2107 2107 2107 2107 2120 2120 2120 2120 2120 2133 2147 2147 2133 2147 2160 2174 2187 2187 2187 2187 2187 2187 2187 2174 2174 2174 2160 2174 0 0 0 0 0 0 0 3390 3423 3390 3423 3390 3390 3423 3423 3423 3423 3423 3423 3423 3423 3458 3458 3458 3458 3493 3493 3423 3458 3493 3458 3458 3458 3458 3458 3423 3423 3423 3423 3458 3458 3458 3458 3458 3458 3458 3458 3458 3423 3423 3423 3423 3423 3423 3423 3423 3423 3458 3458 3458 3458 3458 3458 3493 3493 3528 3528 3528 3528 3528 3528 3528 3528 3493 3458 3528 3528 3493 3493 3493 3493 3528 3528 3528 3528 3528 1100 1104 1104 1104 1104 1063 1063 1060 1060 1056 1053 1050 1047 1044 1044 1040 1037 1037 1037 1037 1034 1034 1034 1034 1034 1034 1034 1031 1034 1034 1031 1031 1031 1031 1031 1031 1031 1031 1031 1031 1034 1034 1034 1034 1034 1034 1034 1034 1034 1034 1034 1034 1037 1037 1037 1040 1040 1040 1040 1044 1044 1044 1047 1047 1050 1050 1053 1056 1056 1060 1063 1066 1069 1073 1079 1083 1086 1086 1086 1086 1090 1090 1090 1093 1100 1104 1114 1118 0 0 0 0 0 0 0 0 0 0 0 0 0 0 0 0 0 0 0 0 0 0 0 0 587 587 587 587 587 588 588 589 590 590 591 591 591 591 592 592 592 593 593 593 594 595 595 595 596 596 596 597 597 598 599 599 600 600 601 601 603 603 604 604 604 604 605 605 605 606 606 607 608 608 608 609 609 609 609 610 611 611 612 612 612 613 613 613 614 615 615 617 617 618 618 618 619 619 620 621 621 621 622 622 623 624 625 625 625 627 627 627 628 628 628 629 628 628 629 630 630 631 632 632 634 634 634 635 635 636 637 637 637 638 638 639 639 639 641 641 642 643 643 643 644 645 645 645 647 648 648 649 649 649 649 650 651 651 651 653 653 654 654 655 655 656 658 658 658 659 659 659 659 660 660 661 663 663 664 664 665 665 667 668 668 669 670 672 672 672 673 674 674 674 674 676 676 677 677 678 678 680 680 680 681 682 682 684 684 685 686 685 686 686 688 688 688 688 0 0 0 0 0 0 0 0 0 0 0 0 0 0 0 0 0 0 0 0 0 0 0 0 0 0 0 0 0 0 0 0 0 0 0 0 0 0 0 0 0 0 0 0 0 0 3602 3679 3679 3679 3718 3718 3759 3800 3842 3842 3842 3842 3842 3842 3842 3800 3800 3800 3759 3759 3718 3759 3718 3718 3718 3718 3718 3679 3718 3718 3718 3679 3679 3640 3602 3602 3565 3565 3528 3528 3528 3528 3528 3458 3423 3423 3423 3423 3390 3390 3390 3357 3390 3357 3357 3357 3324 3324 3293 3293 3262 3262 3262 3262 3231 3231 3231 3231 3231 3231 3201 3172 3172 3172 3172 3143
    0 0 0 0 0 0 0 0 0 0 0 0 0 0 0 0 0 0 0 0 0 0 0 0 0 0 0 0 0 0 0 0 0 0 0 0 0 0 0 0 0 0 0 0 0 0 0 0 0 0 0 0 0 0 0 0 0 0 0 0 0 0 0 0 0 0 0 0 0 0 0 0 0 0 0 0 0 0 0 0 0 0 2045 2045 2057 2057 2057 2057 2057 2069 2082 2082 2095 2095 2095 2095 2107 2107 2107 2107 2107 2107 2120 2133 2133 2133 2147 2147 2160 2174 2160 2174 2187 2187 2187 2201 2201 2201 2201 2201 2201 2187 2174 2174 2174 2174 0 0 0 0 0 0 3390 3390 3390 3390 3390 3390 3390 3390 3423 3423 3423 3423 3423 3423 3423 3458 3458 3458 3458 3458 3458 3458 3458 3458 3423 3423 3458 3423 3423 3423 3423 3423 3423 3458 3423 3458 3458 3458 3458 3458 3458 3458 3423 3423 3423 3423 3423 3423 3423 3423 3423 3458 3458 3458 3458 3458 3458 3493 3493 3493 3493 3493 3493 3528 3528 3528 3528 3493 3458 3493 3493 3458 3493 3493 3493 3528 3528 3528 3528 3528 1100 1104 1104 1104 1104 1060 1060 1056 1060 1056 1050 1050 1047 1044 1044 1044 1040 1040 1037 1037 1034 1034 1034 1034 1034 1034 1034 1034 1034 1034 1031 1031 1031 1031 1031 1031 1031 1031 1034 1034 1034 1034 1034 1034 1034 1034 1034 1034 1037 1037 1037 1037 1037 1037 1040 1040 1040 1040 1040 1044 1044 1044 1047 1047 1050 1053 1053 1056 1056 1060 1063 1063 1069 1073 1076 1083 1086 1086 1086 1086 1090 1090 1093 1100 1107 1114 1118 1122 1125 1125 1129 0 0 0 0 0 0 0 0 0 0 0 0 0 0 0 0 0 0 0 0 0 0 587 587 587 587 588 588 589 590 590 591 591 591 592 592 592 593 593 594 594 594 595 595 595 596 596 597 597 598 599 599 599 599 600 600 601 601 604 604 604 604 604 605 605 606 606 606 607 608 608 608 609 609 609 610 610 611 611 612 612 612 613 613 614 614 615 615 617 617 618 618 618 619 620 620 621 621 622 622 622 623 624 625 627 627 627 627 628 628 628 629 629 629 629 629 630 630 631 632 632 634 634 634 635 635 636 637 637 638 638 638 639 639 639 641 642 642 643 643 644 645 645 647 647 648 648 649 649 649 650 650 651 651 651 651 653 653 654 655 655 656 658 658 658 658 659 659 659 660 660 660 663 663 664 664 665 665 667 667 668 668 669 670 670 672 672 673 674 674 674 674 676 677 677 678 678 680 680 681 681 681 682 682 684 685 685 686 686 686 688 688 688 688 0 0 0 0 0 0 0 0 0 0 0 0 0 0 0 0 0 0 0 0 0 0 0 0 0 0 0 0 0 0 0 0 0 0 0 0 0 0 0 0 0 0 0 0 0 0 0 3679 3679 3718 3718 3718 3759 3759 3759 3842 3842 3800 3842 3842 3842 3842 3800 3718 3718 3718 3718 3718 3718 3718 3718 3718 3718 3718 3679 3718 3718 3679 3640 3640 3640 3602 3602 3565 3565 3565 3528 3528 3528 3528 3458 3458 3423 3423 3423 3390 3390 3390 3357 3390 3357 3357 3357 3324 3324 3293 3262 3262 3262 3262 3262 3231 3231 3201 3201 3201 3201 3172 3172 3172 3172 3172 3172
    0 0 0 0 0 0 0 0 0 0 0 0 0 0 0 0 0 0 0 0 0 0 0 0 0 0 0 0 0 0 0 0 0 0 0 0 0 0 0 0 0 0 0 0 0 0 0 0 0 0 0 0 0 0 0 0 0 0 0 0 0 0 0 0 0 0 0 0 0 0 0 0 0 0 0 0 0 0 0 0 0 2057 2057 2045 2057 2057 2057 2057 2057 2069 2069 2082 2095 2095 2095 2095 2107 2107 2107 2107 2107 2120 2147 2147 2147 2160 2160 2174 2187 2187 2187 2187 2187 2187 2201 2201 2201 2201 2201 2201 2201 2187 2187 2187 2174 2174 2174 0 0 0 0 0 3390 3357 3357 3357 3390 3390 3390 3390 3423 3423 3423 3423 3423 3423 3423 3423 3458 3458 3493 3423 3458 3458 3458 3458 3423 3458 3458 3423 3423 3423 3423 3423 3458 3458 3423 3423 3458 3458 3458 3458 3458 3458 3423 3423 3423 3423 3423 3458 3423 3423 3458 3458 3458 3458 3458 3458 3458 3458 3493 3493 3493 3493 3493 3493 3528 3493 3458 3458 3458 3493 3493 3458 3493 3493 3493 3493 3528 3528 3528 3528 1100 1100 1100 1104 1104 1060 1060 1060 1060 1056 1050 1050 1047 1044 1044 1044 1040 1040 1040 1037 1037 1034 1034 1034 1034 1034 1034 1034 1034 1034 1031 1031 1031 1031 1034 1034 1031 1031 1034 1034 1034 1034 1034 1034 1034 1034 1034 1034 1037 1037 1037 1037 1040 1040 1040 1040 1040 1044 1044 1044 1044 1044 1047 1050 1050 1053 1053 1056 1056 1060 1063 1063 1066 1073 1079 1083 1083 1086 1086 1090 1090 1093 1097 1104 1107 1114 1118 1122 1122 1125 1129 0 0 1171 1175 0 0 0 0 0 0 0 0 0 0 0 0 0 0 0 0 0 0 587 587 587 588 588 589 589 590 590 591 591 592 592 593 594 594 594 595 595 595 595 596 596 596 596 597 597 597 598 599 599 599 600 600 601 603 604 604 604 605 605 605 605 606 606 606 607 608 608 608 609 609 609 610 610 611 612 612 612 612 613 613 614 615 615 617 617 618 618 618 619 620 620 621 621 621 622 622 623 624 625 625 627 627 627 628 628 628 629 629 630 629 629 630 630 631 632 634 634 634 634 635 635 636 636 637 637 638 638 638 639 639 639 641 642 643 643 644 644 645 647 647 648 648 649 649 649 649 650 650 651 653 653 653 653 654 654 655 656 658 658 659 659 659 659 659 660 660 660 660 663 663 664 664 665 667 667 668 668 669 669 670 672 672 673 674 674 674 674 676 676 677 677 678 678 680 680 680 681 681 682 682 684 685 685 686 686 688 688 688 688 688 0 0 0 0 0 0 0 0 0 0 0 0 0 0 0 0 0 0 0 0 0 0 0 0 0 0 0 0 0 0 0 0 0 0 0 0 0 0 0 0 0 0 0 0 0 0 0 0 3679 3718 3718 3718 3759 3759 3800 3842 3842 3800 3842 3842 3842 3842 3800 3718 3718 3718 3718 3718 3718 3718 3718 3718 3718 3718 3679 3679 3679 3640 3640 3602 3640 3565 3602 3565 3565 3528 3528 3528 3528 3528 3423 3423 3423 3423 3390 3390 3390 3390 3357 3357 3357 3357 3324 3293 3293 3293 3262 3262 3262 3262 3231 3231 3231 3231 3201 3201 3201 3201 3201 3201 3201 3172 3143
    0 0 0 0 0 0 0 0 0 0 0 0 0 0 0 0 0 0 0 0 0 0 0 0 0 0 0 0 0 0 0 0 0 0 0 0 0 0 0 0 0 0 0 0 0 0 0 0 0 0 0 0 0 0 0 0 0 0 0 0 0 0 0 0 0 0 0 0 0 0 0 0 0 0 0 0 0 0 0 0 0 2057 2057 2045 2057 2057 2057 2057 2069 2069 2069 2082 2082 2095 2095 2095 2095 2107 2107 2107 2120 2120 2147 2160 2160 2160 2174 2187 2187 2187 2187 2187 2201 2201 2201 2201 2201 2201 2201 2201 2201 2201 2187 2187 2174 2187 2174 0 0 0 0 0 3390 3357 3357 3357 3390 3390 3390 3390 3390 3423 3423 3423 3423 3423 3423 3458 3458 3458 3423 3458 3458 3458 3458 3423 3423 3423 3423 3423 3423 3458 3458 3423 3423 3423 3423 3458 3458 3458 3458 3458 3458 3458 3423 3423 3423 3423 3423 3458 3423 3423 3423 3458 3458 3458 3458 3458 3458 3493 3493 3493 3528 3493 3493 3493 3493 3458 3458 3458 3458 3458 3458 3458 3458 3493 3493 3493 3528 3528 3528 3528 3528 1100 1100 1100 1100 1060 1060 1060 1060 1056 1053 1050 1047 1047 1044 1044 1044 1044 1040 1040 1040 1037 1037 1034 1034 1034 1034 1031 1034 1031 1031 1031 1031 1031 1034 1034 1034 1034 1034 1034 1037 1037 1037 1034 1037 1037 1037 1037 1037 1040 1040 1040 1040 1040 1040 1044 1044 1044 1044 1044 1047 1047 1047 1050 1050 1053 1053 1056 1056 1060 1063 1063 1069 1073 1076 1083 1083 1086 1086 1090 1090 1093 1097 1104 1107 1114 1114 1122 1125 1125 1129 1129 1171 1171 1175 0 0 0 0 0 0 0 0 0 0 0 0 0 0 0 0 0 0 587 588 588 588 588 589 590 590 591 591 591 592 592 593 593 594 594 595 594 595 595 596 596 596 596 597 598 598 598 599 599 599 600 600 601 603 604 604 604 605 605 605 605 606 606 607 607 608 608 608 609 609 609 609 610 611 612 612 612 613 613 614 614 615 615 617 617 618 618 618 619 620 620 621 621 621 622 622 623 624 625 627 627 627 628 628 628 629 629 630 630 629 630 630 630 631 632 632 634 634 634 635 635 635 636 637 637 638 638 638 639 639 641 641 642 643 643 644 645 645 647 647 648 648 649 649 650 650 651 651 653 653 653 653 654 654 654 655 658 658 658 659 659 659 660 660 660 660 660 661 663 664 664 665 667 667 667 668 668 669 670 672 673 673 674 674 676 676 676 677 677 678 678 678 680 680 681 681 681 682 684 684 685 685 685 688 688 688 688 689 689 689 0 0 0 0 0 0 0 0 0 0 0 0 0 0 0 0 0 0 0 0 0 0 0 0 0 0 0 0 0 0 0 0 0 0 0 0 0 0 0 0 0 0 0 0 0 0 0 0 3602 3679 3718 3718 3759 3718 3718 3759 3842 3800 3842 3842 3842 3842 3759 3718 3718 3718 3718 3718 3718 3718 3718 3718 3718 3679 3679 3679 3679 3602 3602 3565 3602 3565 3565 3565 3565 3528 3493 3493 3493 3458 3423 3390 3390 3390 3390 3390 3357 3357 3357 3357 3357 3357 3324 3293 3324 3293 3262 3262 3262 3262 3262 3231 3231 3231 3201 3201 3201 3201 3143 3172 3143 3143 3143
    0 0 0 0 0 0 0 0 0 0 0 0 0 0 0 0 0 0 0 0 0 0 0 0 0 0 0 0 0 0 0 0 0 0 0 0 0 0 0 0 0 0 0 0 0 0 0 0 0 0 0 0 0 0 0 0 0 0 0 0 0 0 0 0 0 0 0 0 0 0 0 0 0 0 0 0 0 0 0 0 0 2057 2057 2057 2057 2057 2057 2057 2057 2069 2069 2082 2082 2095 2095 2095 2095 2107 2107 2107 2120 2133 2160 2174 2160 2174 2174 2187 2187 2187 2187 2187 2201 2201 2201 2201 2201 2201 2201 2201 2201 2187 2187 2187 2174 2174 2174 0 0 0 0 0 3423 3390 3357 3357 3390 3390 3390 3390 3390 3390 3423 3423 3423 3423 3423 3423 3458 3458 3458 3423 3423 3458 3423 3423 3423 3423 3423 3423 3423 3423 3423 3423 3423 3423 3423 3423 3458 3458 3458 3458 3458 3458 3458 3423 3423 3423 3458 3458 3458 3458 3458 3458 3458 3458 3458 3458 3458 3493 3493 3493 3493 3493 3493 3458 3458 3458 3458 3458 3458 3458 3458 3458 3458 3458 3493 3493 3493 3528 3528 3528 3528 1097 1097 1097 1100 1060 1060 1060 1060 1060 1053 1053 1050 1047 1047 1047 1044 1044 1044 1044 1040 1037 1037 1037 1034 1034 1034 1034 1034 1031 1031 1031 1031 1031 1034 1031 1031 1034 1034 1034 1037 1037 1037 1037 1037 1040 1040 1040 1040 1044 1044 1044 1044 1044 1044 1044 1044 1044 1044 1047 1047 1047 1047 1050 1053 1053 1056 1056 1056 1060 1063 1063 1066 1073 1076 1079 1083 1086 1086 1090 1093 1093 1100 1104 1107 1114 1114 1122 1125 1129 1129 1140 1159 1167 1171 0 0 0 0 0 0 0 0 0 0 0 0 0 0 0 0 0 0 587 588 588 588 588 589 590 590 591 591 592 592 593 593 594 594 594 595 594 595 595 596 596 596 597 597 598 598 599 599 599 599 600 600 603 603 604 604 605 605 605 605 606 606 606 607 607 608 608 608 609 609 609 609 610 611 612 612 612 613 613 614 614 615 615 617 617 618 618 618 619 620 620 620 621 621 622 622 623 625 625 627 627 628 628 628 628 629 630 630 630 629 630 630 631 631 632 634 634 634 634 635 635 635 636 637 637 638 638 639 639 641 641 642 643 643 643 644 645 645 647 647 648 648 649 649 650 650 651 651 653 653 653 654 654 654 655 655 656 658 659 659 659 660 660 660 660 660 660 661 663 664 664 665 667 668 668 668 669 669 670 672 673 673 674 676 677 677 677 677 678 678 678 680 680 681 681 682 682 682 684 684 685 685 686 688 688 688 689 689 689 0 0 0 0 0 0 0 0 0 0 0 0 0 0 0 0 0 0 0 0 0 0 0 0 0 0 0 0 0 0 0 0 0 0 0 0 0 0 0 0 0 0 0 0 0 0 0 0 0 3602 3602 3718 3718 3718 3679 3718 3718 3718 3759 3759 3842 3759 3718 3718 3718 3718 3679 3718 3718 3718 3718 3718 3718 3679 3679 3679 3679 3602 3602 3602 3602 3602 3565 3565 3565 3565 3528 3493 3493 3493 3423 3390 3390 3390 3423 3390 3390 3390 3390 3357 3357 3357 3357 3357 3324 3324 3293 3262 3262 3262 3262 3262 3231 3231 3231 3201 3201 3201 3201 3143 3143 3143 3115 3115
    0 0 0 0 0 0 0 0 0 0 0 0 0 0 0 0 0 0 0 0 0 0 0 0 0 0 0 0 0 0 0 0 0 0 0 0 0 0 0 0 0 0 0 0 0 0 0 0 0 0 0 0 0 0 0 0 0 0 0 0 0 0 0 0 0 0 0 0 0 0 0 0 0 0 0 0 0 0 0 0 0 2057 2057 2057 2057 2057 2057 2057 2057 2057 2069 2082 2082 2095 2095 2095 2095 2107 2107 2120 2133 2147 2174 2174 2174 2174 2174 2187 2187 2187 2187 2187 2201 2201 2201 2201 2201 2201 2201 2201 2201 2187 2187 2187 2187 2187 0 0 0 0 0 0 3458 3423 3390 3390 3390 3390 3390 3390 3390 3390 3423 3423 3423 3423 3423 3423 3423 3423 3458 3458 3458 3423 3423 3423 3423 3423 3423 3423 3423 3423 3423 3423 3423 3423 3423 3423 3458 3458 3458 3458 3458 3458 3458 3458 3458 3458 3423 3423 3423 3423 3458 3458 3458 3458 3458 3458 3458 3493 3493 3493 3493 3493 3458 3458 3458 3458 3458 3458 3458 3458 3458 3458 3458 3458 3458 3458 3493 3528 3528 3528 3528 1097 1093 1093 1097 1060 1060 1060 1060 1060 1056 1053 1050 1050 1050 1047 1047 1047 1047 1047 1044 1040 1040 1037 1037 1034 1034 1034 1034 1034 1031 1031 1031 1031 1031 1031 1034 1034 1037 1037 1037 1040 1040 1040 1040 1040 1040 1040 1044 1044 1044 1044 1044 1044 1044 1044 1044 1044 1044 1047 1047 1047 1047 1050 1053 1053 1056 1056 1056 1060 1063 1066 1069 1073 1076 1079 1083 1086 1086 1090 1097 1097 1104 1107 1111 1114 1118 1122 1125 1129 1133 1136 1136 0 0 0 0 0 0 0 0 0 0 0 0 0 0 0 0 0 0 0 0 588 588 588 589 589 589 590 590 591 591 592 592 593 593 594 594 594 595 594 595 595 596 596 596 597 598 598 598 599 599 599 600 600 600 603 603 604 605 605 605 605 605 606 606 606 606 607 607 608 608 609 609 609 609 610 611 612 612 612 613 613 614 615 615 617 617 617 618 618 618 619 620 620 620 621 621 622 623 624 625 627 627 627 628 628 628 628 629 630 630 630 630 630 630 631 632 632 634 634 634 634 635 635 635 636 637 637 638 638 639 639 641 641 642 643 643 644 644 645 647 647 647 648 648 649 649 650 650 651 651 653 653 654 654 654 654 655 656 658 658 659 659 659 660 660 660 660 660 661 663 664 664 665 667 667 668 668 668 668 669 670 672 672 672 674 676 676 676 677 677 678 678 678 680 681 681 681 682 682 682 684 684 685 686 686 688 688 688 689 691 691 0 0 0 0 0 0 0 0 0 0 0 0 0 0 0 0 0 0 0 0 0 0 0 0 0 0 0 0 0 0 0 0 0 0 0 0 0 0 0 0 0 0 0 0 0 0 0 0 0 3602 3640 3640 3718 3718 3718 3718 3718 3759 3759 3759 3759 3759 3718 3718 3679 3718 3679 3718 3718 3718 3718 3759 3718 3679 3718 3679 3679 3602 3602 3602 3602 3602 3565 3565 3565 3565 3528 3528 3493 3458 3423 3390 3390 3390 3423 3423 3423 3390 3390 3357 3357 3357 3357 3357 3324 3293 3293 3262 3293 3262 3262 3262 3262 3231 3231 3231 3201 3201 3143 3143 3143 3115 3115 3115
    0 0 0 0 0 0 0 0 0 0 0 0 0 0 0 0 0 0 0 0 0 0 0 0 0 0 0 0 0 0 0 0 0 0 0 0 0 0 0 0 0 0 0 0 0 0 0 0 0 0 0 0 0 0 0 0 0 0 0 0 0 0 0 0 0 0 0 0 0 0 0 0 0 0 0 0 0 0 0 0 0 2057 2057 2045 2057 2057 2057 2057 2057 2069 2069 2082 2082 2095 2095 2095 2095 2107 2120 2120 2147 2160 2160 2174 2174 2174 2174 2187 2187 2187 2187 2187 2201 2201 2201 2201 2201 2201 2201 2201 2201 2187 2187 2187 2187 2174 0 0 0 0 0 0 3458 3423 3423 3423 3423 3390 3423 3390 3423 3423 3423 3423 3423 3423 3423 3458 3458 3458 3458 3458 3423 3423 3423 3423 3423 3423 3423 3423 3423 3423 3423 3423 3423 3423 3423 3423 3458 3458 3458 3458 3458 3458 3458 3493 3458 3458 3458 3458 3458 3458 3458 3458 3458 3458 3458 3458 3458 3493 3493 3493 3458 3458 3458 3458 3458 3423 3458 3458 3458 3458 3458 3458 3458 3458 3458 3493 3493 3528 3528 3528 3528 1093 1093 1093 1097 0 1063 1060 1060 1060 1056 1056 1053 1053 1053 1050 1050 1050 1047 1047 1044 1044 1044 1044 1037 1037 1034 1034 1034 1031 1031 1031 1031 1031 1031 1034 1034 1034 1037 1040 1040 1044 1040 1040 1044 1044 1044 1044 1044 1044 1044 1044 1044 1044 1044 1044 1044 1044 1047 1047 1050 1050 1050 1053 1053 1056 1056 1056 1060 1060 1063 1066 1069 1069 1073 1076 1083 1086 1090 1093 1097 1100 1107 1111 1114 1118 1122 1125 1125 1129 1133 1136 1136 0 0 0 0 0 0 0 0 0 0 0 0 0 0 0 0 0 0 0 588 588 589 589 590 589 590 590 591 591 591 592 593 594 594 594 595 595 595 595 595 595 596 596 597 597 598 598 599 599 599 600 600 600 600 603 603 604 605 605 605 605 605 605 606 607 606 607 608 608 609 609 609 610 610 610 611 612 612 612 613 614 615 615 617 617 617 617 618 618 618 619 620 620 621 621 622 622 623 624 625 627 627 627 628 628 629 629 629 630 630 631 630 630 630 631 632 632 634 634 634 634 635 636 636 637 637 638 638 639 639 641 641 642 642 643 643 644 644 645 647 647 647 648 649 649 650 650 651 651 653 653 654 654 654 654 655 656 656 658 658 659 659 659 660 660 660 660 660 661 663 664 664 665 667 667 668 668 668 669 669 670 672 672 673 674 676 677 677 677 677 678 678 680 680 681 681 681 682 682 684 684 684 685 685 686 688 688 689 689 691 692 0 0 0 0 0 0 0 0 0 0 0 0 0 0 0 0 0 0 0 0 0 0 0 0 0 0 0 0 0 0 0 0 0 0 0 0 0 0 0 0 0 0 0 0 0 0 0 0 3640 3640 3640 3679 3679 3718 3718 3718 3718 3718 3718 3718 3759 3718 3718 3718 3679 3679 3679 3718 3718 3800 3800 3759 3759 3759 3718 3718 3679 3679 3602 3602 3602 3640 3565 3565 3565 3565 3528 3528 3528 3458 3458 3390 3390 3423 3423 3423 3423 3423 3390 3357 3357 3357 3357 3357 3324 3293 3293 3262 3262 3262 3262 3262 3262 3231 3231 3231 3201 3201 3143 3143 3115 3087 3087 3087
    0 0 0 0 0 0 0 0 0 0 0 0 0 0 0 0 0 0 0 0 0 0 0 0 0 0 0 0 0 0 0 0 0 0 0 0 0 0 0 0 0 0 0 0 0 0 0 0 0 0 0 0 0 0 0 0 0 0 0 0 0 0 0 0 0 0 0 0 0 0 0 0 0 0 0 0 0 0 0 0 2057 2057 2057 2057 2057 2057 2057 2057 2057 2057 2069 2082 2082 2095 2095 2095 2095 2107 2120 2133 2147 2147 2160 2160 2160 2174 2174 2174 2187 2187 2187 2187 2187 2187 2187 2187 2187 2187 2187 2201 2201 2187 2187 2187 2174 2174 0 0 0 0 3528 3458 3458 3458 3423 3423 3423 3423 3390 3390 3423 3390 3423 3423 3423 3423 3423 3423 3458 3423 3458 3458 3458 3458 3458 3423 3423 3423 3423 3423 3423 3423 3423 3423 3458 3423 3423 3423 3458 3458 3458 3458 3458 3458 3458 3493 3458 3458 3458 3458 3458 3458 3458 3458 3458 3458 3458 3458 3458 3493 3493 3493 3458 3458 3458 3458 3423 3423 3423 3458 3458 3423 3423 3458 3458 3458 3458 3458 3493 3528 3528 3528 3493 3493 1090 1090 1090 0 1060 1060 1060 1060 1056 1056 1056 1056 1056 1056 1053 1053 1050 1050 1047 1047 1047 1044 1044 1040 1037 1034 1034 1034 1031 1031 1031 1031 1031 1034 1034 1037 1040 1044 1044 1044 1044 1044 1047 1047 1047 1047 1047 1047 1047 1047 1047 1044 1044 1044 1044 1044 1047 1047 1047 1047 1050 1053 1056 1056 1056 1060 1060 1063 1063 1066 1069 1073 1076 1079 1083 1086 1093 1097 1100 1104 1111 1111 1114 1118 1122 1125 1129 1129 1133 1136 1140 1144 0 0 0 0 0 0 0 0 0 0 0 0 0 0 0 0 0 0 588 589 589 590 590 590 590 590 591 591 591 592 593 593 594 595 595 595 595 595 595 595 596 596 597 598 598 599 599 599 599 600 600 600 601 603 604 605 605 605 606 606 606 606 607 607 607 607 608 608 609 609 610 610 610 611 612 612 613 613 614 614 615 617 617 617 617 618 618 618 619 620 621 621 621 622 622 622 623 625 625 627 627 627 627 628 628 628 629 630 630 631 630 631 630 631 632 632 634 634 634 634 635 636 636 637 637 638 639 639 641 641 642 643 643 643 644 644 644 645 647 647 648 648 649 649 650 651 651 653 653 654 654 654 654 655 655 656 658 658 659 659 659 660 661 661 660 661 661 661 663 664 664 665 667 667 668 668 669 669 670 672 672 670 673 674 676 677 677 677 677 678 678 680 680 681 682 682 682 684 684 685 685 685 686 688 688 688 689 689 691 693 0 0 0 0 0 0 0 0 0 0 0 0 0 0 0 0 0 0 0 0 0 0 0 0 0 0 0 0 0 0 0 0 0 0 0 0 0 0 0 0 0 0 0 0 0 0 0 0 3640 3640 3718 3718 3718 3718 3718 3718 3718 3718 3759 3718 3759 3718 3718 3718 3679 3679 3679 3718 3800 3800 3759 3759 3759 3718 3718 3679 3679 3602 3602 3602 3602 3640 3565 3565 3602 3565 3565 3528 3493 3458 3423 3390 3423 3423 3423 3423 3423 3423 3390 3390 3357 3357 3357 3357 3324 3293 3262 3262 3262 3262 3262 3262 3262 3231 3231 3201 3201 3201 3201 3172 3143 3115 3115 3087
    0 0 0 0 0 0 0 0 0 0 0 0 0 0 0 0 0 0 0 0 0 0 0 0 0 0 0 0 0 0 0 0 0 0 0 0 0 0 0 0 0 0 0 0 0 0 0 0 0 0 0 0 0 0 0 0 0 0 0 0 0 0 0 0 0 0 0 0 0 0 0 0 0 0 0 0 0 0 0 0 0 2057 2057 2057 2057 2057 2057 2057 2057 2057 2057 2069 2082 2082 2082 2095 2095 2107 2120 2133 2147 2147 2160 2160 2160 2174 2174 2174 2174 2174 2187 2174 2187 2187 2187 2187 2187 2201 2201 2201 2201 2201 2201 2187 2187 0 0 0 0 0 3493 3458 3423 3423 3423 3423 3423 3423 3423 3423 3423 3390 3423 3423 3423 3423 3423 3423 3423 3423 3423 3458 3423 3458 3458 3423 3423 3423 3423 3423 3423 3423 3423 3423 3458 3423 3423 3423 3458 3458 3458 3423 3423 3458 3458 3458 3458 3458 3458 3458 3458 3458 3458 3458 3458 3458 3493 3458 3493 3493 3493 3493 3458 3458 3458 3458 3423 3423 3423 3458 3458 3423 3423 3458 3458 3458 3458 3493 3493 3528 3528 3528 3493 3528 1090 0 1090 0 1060 1060 1060 1060 1060 1060 1056 1056 1056 1056 1056 1053 1053 1050 1050 1047 1047 1047 1044 1044 1040 1037 1037 1034 1031 1031 1031 1031 1031 1031 1034 1034 1040 1044 1044 1044 1044 1047 1047 1047 1047 1047 1047 1047 1047 1047 1047 1047 1047 1047 1047 1047 1047 1047 1050 1050 1053 1053 1056 1056 1060 1060 1060 1063 1063 1066 1069 1073 1076 1083 1086 1086 1093 1097 1100 1104 1111 1111 1114 1118 1122 1125 1129 1133 1136 1140 1140 1144 0 0 0 0 0 0 0 0 0 0 0 0 0 0 0 0 0 0 588 589 589 590 590 590 590 591 591 591 592 592 594 594 594 595 595 595 595 595 595 596 596 596 597 598 598 599 599 599 599 600 600 600 601 603 604 605 605 605 605 606 606 606 607 607 607 608 608 608 609 610 610 610 610 611 612 612 613 613 614 615 615 617 617 618 618 618 618 619 619 620 621 621 621 622 622 623 624 625 625 627 627 627 627 628 629 628 629 630 630 631 630 631 631 631 632 632 634 634 634 635 635 636 636 637 638 638 639 641 641 642 642 642 643 643 644 644 644 645 647 647 648 648 649 650 651 651 653 653 653 654 654 654 655 655 655 656 658 658 659 659 660 660 661 661 661 661 661 661 663 664 664 665 667 667 668 669 669 669 670 672 672 672 673 674 676 677 677 677 678 678 678 680 680 681 682 682 684 684 684 685 685 686 686 688 689 689 689 689 691 0 0 0 0 0 0 0 0 0 0 0 0 0 0 0 0 0 0 0 0 0 0 0 0 0 0 0 0 0 0 0 0 0 0 0 0 0 0 0 0 0 0 0 0 0 0 0 0 0 3640 3640 3718 3718 3679 3718 3718 3718 3759 3759 3759 3759 3759 3718 3718 3718 3718 3679 3679 3800 3800 3759 3759 3718 3718 3718 3718 3679 3679 3679 3602 3602 3602 3602 3565 3565 3565 3565 3493 3528 3458 3458 3423 3390 3390 3390 3423 3423 3423 3423 3390 3357 3357 3357 3357 3357 3324 3293 3262 3262 3262 3231 3231 3262 3231 3231 3231 3201 3201 3201 3201 3172 3143 3115 3115 3115
    0 0 0 0 0 0 0 0 0 0 0 0 0 0 0 0 0 0 0 0 0 0 0 0 0 0 0 0 0 0 0 0 0 0 0 0 0 0 0 0 0 0 0 0 0 0 0 0 0 0 0 0 0 0 0 0 0 0 0 0 0 0 0 0 0 0 0 0 0 0 0 0 0 0 0 0 0 0 0 0 0 2057 2057 2057 2057 2057 2057 2057 2057 2057 2057 2057 2069 2082 2082 2082 2095 2107 2120 2133 2147 2147 2160 2160 2160 2160 2174 2174 2174 2174 2174 2174 2174 2187 2187 2187 2187 2187 2187 2201 2201 2201 2201 2201 2187 0 0 0 0 0 3458 3423 3423 3423 3423 3423 3423 3423 3423 3423 3423 3390 3423 3423 3390 3423 3423 3423 3423 3423 3423 3423 3423 3458 3458 3423 3423 3423 3423 3423 3423 3423 3423 3423 3458 3423 3423 3423 3423 3458 3458 3458 3458 3458 3423 3493 3458 3458 3458 3458 3458 3458 3458 3458 3458 3493 3493 3493 3493 3528 3528 3458 3458 3458 3458 3423 3423 3423 3423 3423 3423 3423 3423 3458 3458 3458 3458 3458 3493 3528 3528 3528 3493 3493 3528 3528 0 0 1060 1060 1060 1060 1060 1060 1056 1056 1060 1060 1056 1056 1053 1053 1050 1050 1047 1047 1047 1044 1040 1037 1034 1031 1031 1031 1028 1028 1031 1031 1034 1040 1044 1044 1044 1044 1047 1047 1047 1047 1047 1047 1044 1047 1044 1044 1047 1044 1047 1047 1047 1047 1047 1047 1047 1050 1050 1053 1056 1056 1060 1060 1063 1063 1066 1066 1069 1073 1076 1079 1083 1090 1093 1097 1100 1104 1111 1111 1114 1118 1122 1125 1129 1133 1136 1140 1140 1144 0 0 0 0 0 0 0 0 0 0 0 0 0 0 0 0 0 588 589 589 589 590 590 590 590 591 591 592 592 593 594 594 594 595 595 595 595 595 595 596 596 596 597 598 598 599 599 599 599 600 600 601 601 603 604 605 605 605 605 606 606 606 607 607 608 608 608 609 609 610 610 611 611 611 612 613 614 615 615 615 617 617 617 618 618 618 618 619 619 620 620 621 621 622 623 623 624 625 625 627 627 627 627 628 628 629 630 630 631 631 631 631 631 632 632 634 634 635 635 635 635 636 636 637 638 638 639 641 642 642 642 643 643 643 644 644 645 647 647 647 648 648 649 650 650 651 653 653 653 654 654 654 655 655 655 656 658 658 659 659 660 660 661 663 661 663 663 663 663 664 664 664 665 667 668 669 669 669 670 672 673 672 673 674 676 677 677 678 678 678 678 680 680 681 682 682 684 684 685 685 685 686 688 689 689 689 689 691 692 0 0 0 0 0 0 0 0 0 0 0 0 0 0 0 0 0 0 0 0 0 0 0 0 0 0 0 0 0 0 0 0 0 0 0 0 0 0 0 0 0 0 0 0 0 0 0 0 3640 3640 3640 3718 3718 3679 3718 3718 3718 3718 3718 3759 3759 3759 3718 3718 3718 3759 3718 3718 3800 3759 3759 3759 3718 3718 3718 3718 3679 3679 3640 3640 3640 3602 3602 3565 3565 3528 3565 3528 3528 3493 3458 3458 3423 3390 3390 3390 3390 3390 3390 3390 3357 3357 3357 3357 3357 3324 3293 3262 3262 3262 3231 3231 3231 3262 3262 3231 3231 3231 3231 3231 3201 3143 3143 3115 3115
    0 0 0 0 0 0 0 0 0 0 0 0 0 0 0 0 0 0 0 0 0 0 0 0 0 0 0 0 0 0 0 0 0 0 0 0 0 0 0 0 0 0 0 0 0 0 0 0 0 0 0 0 0 0 0 0 0 0 0 0 0 0 0 0 0 0 0 0 0 0 0 0 0 0 0 0 0 0 0 0 0 2057 2057 2057 2057 2057 2057 2057 2057 2057 2057 2057 2069 2069 2082 2082 2095 2107 2120 2133 2147 2147 2160 2160 2160 2174 2174 2174 2174 2174 2187 2187 2174 2187 2187 2187 2187 2187 2187 2201 2201 2201 2201 2187 2187 2187 0 0 0 3458 3458 3423 3423 3423 3423 3423 3423 3423 3423 3423 3390 3390 3423 3390 3390 3390 3423 3423 3423 3423 3423 3423 3423 3423 3423 3423 3423 3423 3423 3423 3423 3423 3423 3423 3458 3458 3458 3458 3458 3458 3458 3458 3458 3458 3458 3493 3493 3458 3458 3458 3423 3423 3458 3423 3423 3458 3458 3458 3493 3493 3493 3423 3458 3423 3423 3423 3423 3423 3423 3423 3423 3423 3423 3458 3458 3458 3458 3458 3493 3528 3528 3528 3493 3493 3565 0 0 0 1063 0 1063 1060 1063 1060 1060 1060 1060 1060 1060 1056 1053 1053 1050 1050 1050 1047 1047 1047 1044 1037 1034 1031 1028 1028 1025 1028 1028 1034 1034 1040 1044 1044 1044 1044 1044 1044 1047 1044 1047 1047 1044 1044 1044 1044 1044 1044 1044 1044 1044 1047 1047 1047 1047 1050 1050 1053 1056 1056 1060 1063 1063 1066 1066 1069 1069 1073 1073 1076 1083 1086 1093 1097 1100 1104 1111 1111 1118 1122 1125 1129 1133 1136 1140 1140 1140 1144 0 0 0 0 0 0 0 0 0 0 0 0 0 0 0 0 588 588 589 590 590 590 590 591 591 591 592 592 592 593 594 594 594 595 595 595 595 595 595 596 596 596 597 598 598 599 599 599 600 600 600 601 603 604 605 605 605 605 606 606 606 607 607 608 608 608 609 609 609 610 610 611 611 612 613 613 614 615 617 617 617 617 617 618 618 618 618 619 619 620 621 621 622 622 623 623 624 625 625 627 627 627 628 628 628 628 629 630 631 631 631 631 631 632 634 634 634 635 635 635 635 636 636 637 638 639 639 641 642 642 643 643 643 644 644 644 645 647 647 648 648 648 649 650 651 651 653 653 653 654 654 654 655 655 655 658 658 659 659 660 660 661 663 663 663 663 663 663 663 664 664 665 667 667 668 669 669 669 670 672 673 673 674 674 676 677 677 678 678 678 680 680 681 681 682 684 684 685 685 685 685 686 688 689 689 689 689 691 0 0 0 0 0 0 0 0 0 0 0 0 0 0 0 0 0 0 0 0 0 0 0 0 0 0 0 0 0 0 0 0 0 0 0 0 0 0 0 0 0 0 0 0 0 0 0 0 0 3679 3640 3640 3679 3679 3679 3718 3718 3718 3718 3759 3759 3759 3800 3759 3759 3759 3759 3759 3759 3800 3759 3759 3718 3718 3718 3718 3718 3679 3679 3640 3640 3640 3640 3640 3602 3602 3565 3565 3528 3528 3493 3493 3493 3458 3423 3390 3390 3390 3390 3357 3357 3357 3357 3357 3357 3357 3324 3293 3262 3262 3231 3231 3231 3231 3231 3231 3231 3231 3231 3201 3201 3143 3143 3143 3115 3115
    0 0 0 0 0 0 0 0 0 0 0 0 0 0 0 0 0 0 0 0 0 0 0 0 0 0 0 0 0 0 0 0 0 0 0 0 0 0 0 0 0 0 0 0 0 0 0 0 0 0 0 0 0 0 0 0 0 0 0 0 0 0 0 0 0 0 0 0 0 0 0 0 0 0 0 0 0 0 0 0 0 2057 2057 2045 2057 2057 2057 2045 2045 2057 2057 2057 2057 2069 2069 2082 2095 2107 2120 2133 2147 2147 2160 2160 2174 2174 2174 2174 2174 2174 2187 2187 2174 2187 2187 2187 2187 2187 2187 2201 2201 2201 2201 2201 0 0 3458 3458 3423 3423 3423 3423 3423 3423 3423 3423 3423 3423 3423 3423 3423 3423 3423 3423 3390 3390 3390 3390 3390 3390 3390 3390 3423 3423 3423 3423 3423 3423 3423 3423 3423 3423 3423 3423 3423 3423 3423 3423 3423 3458 3458 3458 3458 3493 3493 3528 3493 3493 3458 3458 3423 3423 3423 3423 3423 3458 3458 3493 3493 3493 3423 3390 3423 3423 3390 3390 3390 3390 3423 3423 3423 3423 3423 3458 3458 3458 3458 3458 3493 3528 3528 3528 3493 3493 3565 0 0 0 0 0 1066 1063 1063 1063 1060 1060 1060 1060 1060 1060 1056 1053 1053 1050 1050 1050 1047 1047 1044 1037 1034 1031 1028 1025 1025 1025 1025 1031 1031 1040 1040 1044 1044 1044 1044 1044 1044 1044 1044 1044 1044 1044 1044 1044 1044 1044 1044 1044 1044 1047 1047 1047 1047 1050 1053 1053 1056 1060 1060 1060 1063 1063 1066 1066 1069 1069 1073 1076 1079 1086 1093 1097 1100 1107 1111 1111 1118 1122 1125 1133 1136 1140 1144 1144 1144 1144 0 0 0 0 0 0 0 0 0 0 0 0 0 0 0 0 587 588 589 590 590 590 591 591 591 591 592 593 593 594 595 594 595 595 595 595 595 595 595 596 596 597 597 598 599 599 599 600 600 600 600 601 603 604 605 605 605 605 606 606 606 607 608 608 608 609 609 609 609 610 611 612 612 613 613 614 615 615 617 617 617 617 617 618 618 618 619 619 620 620 621 621 622 622 624 624 625 625 625 627 627 627 628 628 628 628 629 630 631 631 631 631 632 634 634 634 635 635 635 636 636 637 637 638 639 639 639 641 642 642 643 643 644 644 644 645 645 647 648 648 649 649 649 650 651 653 653 653 654 654 654 654 656 655 656 658 658 659 660 660 661 661 663 663 663 663 663 663 664 664 664 667 667 668 668 669 669 669 672 672 673 673 674 674 676 677 677 678 678 678 680 680 681 682 684 684 684 685 685 686 686 688 689 689 689 689 689 691 0 0 0 0 0 0 0 0 0 0 0 0 0 0 0 0 0 0 0 0 0 0 0 0 0 0 0 0 0 0 0 0 0 0 0 0 0 0 0 0 0 0 0 0 0 0 0 0 0 3679 3679 3679 3679 3718 3718 3718 3718 3718 3759 3759 3759 3759 3800 3759 3759 3759 3759 3759 3759 3800 3759 3759 3718 3718 3718 3718 3718 3679 3679 3679 3679 3640 3679 3640 3602 3602 3602 3565 3565 3565 3528 3493 3493 3458 3423 3423 3390 3390 3390 3390 3390 3390 3390 3390 3357 3357 3324 3293 3262 3231 3231 3231 3231 3231 3231 3231 3231 3201 3201 3201 3201 3172 3143 3143 3143 3143
    0 0 0 0 0 0 0 0 0 0 0 0 0 0 0 0 0 0 0 0 0 0 0 0 0 0 0 0 0 0 0 0 0 0 0 0 0 0 0 0 0 0 0 0 0 0 0 0 0 0 0 0 0 0 0 0 0 0 0 0 0 0 0 0 0 0 0 0 0 0 0 0 0 0 0 0 0 0 0 0 0 2045 2045 2045 2045 2045 2057 2045 2045 2057 2057 2057 2057 2069 2082 2082 2095 2107 2120 2133 2147 2147 2160 2160 2174 2174 2174 2174 2174 2174 2187 2187 2187 2187 2187 2187 2187 2187 2187 2187 2187 2187 3423 3423 3458 3458 3458 3458 3390 3423 3423 3423 3423 3423 3423 3423 3423 3423 3423 3423 3423 3423 3423 3423 3390 3390 3390 3390 3390 3390 3390 3423 3423 3423 3423 3423 3423 3423 3423 3423 3423 3423 3423 3423 3423 3423 3423 3423 3423 3458 3458 3458 3458 3493 3493 3493 3493 3458 3458 3423 3390 3390 3390 3390 0 0 0 0 0 0 0 3390 3390 3390 3357 3390 3390 3390 3390 3390 3390 3390 3423 3423 3458 3458 3423 3458 3493 3493 3493 3493 3493 3528 0 0 0 0 0 0 1076 1066 1069 1063 1060 1060 1060 1060 1060 1056 1056 1056 1053 1050 1050 1050 1047 1047 1044 1040 1031 1028 1025 1025 1022 1025 1025 1028 1031 1034 1037 1040 1040 1044 1044 1044 1044 1044 1044 1044 1044 1044 1044 1044 1044 1044 1044 1044 1044 1047 1047 1047 1050 1050 1053 1053 1056 1056 1060 1060 1063 1063 1066 1066 1069 1069 1073 1076 1083 1086 1093 1097 1100 1107 1111 1114 1118 1122 1129 1133 1136 1140 1144 1144 1140 1144 0 0 0 0 0 0 0 0 0 0 0 0 0 0 0 587 588 588 589 590 590 590 591 591 591 591 592 593 593 594 594 594 595 595 595 595 595 595 595 596 596 597 597 598 599 599 600 600 600 600 601 601 603 604 605 605 605 605 605 606 606 607 608 608 608 609 609 609 610 610 611 612 612 613 613 614 614 615 617 617 617 617 618 618 618 619 619 620 621 621 621 621 622 623 624 624 625 625 625 627 627 628 628 628 629 629 630 630 631 631 631 632 634 634 635 635 635 636 636 636 636 637 637 638 639 639 639 642 642 643 643 643 644 644 645 645 647 648 648 649 649 649 650 651 653 653 654 654 654 654 654 655 656 656 658 658 659 659 660 660 661 661 663 663 663 664 664 664 664 665 665 667 668 668 668 669 669 670 672 672 673 673 674 674 676 677 677 678 678 678 680 680 681 682 684 684 684 685 685 686 686 688 689 689 691 689 689 691 693 0 0 0 0 0 0 0 0 0 0 0 0 0 0 0 0 0 0 0 0 0 0 0 0 0 0 0 0 0 0 0 0 0 0 0 0 0 0 0 0 0 0 0 0 0 0 0 0 3679 3679 3679 3718 3718 3718 3718 3718 3718 3759 3759 3759 3759 3800 3800 3759 3800 3759 3800 3759 3800 3759 3718 3718 3718 3718 3718 3679 3679 3718 3679 3679 3679 3679 3640 3602 3602 3602 3565 3528 3528 3493 3493 3493 3458 3423 3390 3458 3458 3458 3458 3390 3390 3390 3423 3390 3390 3324 3293 3262 3262 3231 3231 3231 3201 3201 3201 3201 3201 3201 3201 3201 3172 3172 3172 3143 3172
    0 0 0 0 0 0 0 0 0 0 0 0 0 0 0 0 0 0 0 0 0 0 0 0 0 0 0 0 0 0 0 0 0 0 0 0 0 0 0 0 0 0 0 0 0 0 0 0 0 0 0 0 0 0 0 0 0 0 0 0 0 0 0 0 0 0 0 0 0 0 0 0 0 0 0 0 0 0 0 0 0 2045 2045 2045 2057 2057 2057 2057 2057 2057 2057 2057 2057 2069 2082 2082 2095 2107 2120 2133 2147 2147 2160 2160 2174 2174 2174 2174 2174 2174 2187 2187 2174 2174 2187 2187 2187 2187 2187 2187 2187 3390 3423 3423 3458 3458 3458 3423 3390 3423 3390 3390 3390 3390 3390 3390 3423 3423 3423 3423 3423 3423 3423 3423 3390 3390 3390 3390 3390 3390 3390 3390 3390 3423 3390 3390 3423 3423 3423 3423 3423 3390 3423 3390 3423 3423 3423 3423 3423 3423 3458 3458 3458 3458 3115 3115 3115 3115 3115 3143 3172 3143 3201 3201 3201 0 0 0 0 0 0 0 0 0 3357 3390 3390 3390 3390 3390 3357 3357 3390 3423 3458 3458 3423 3458 3493 3528 3493 3493 3493 0 0 0 0 0 0 1079 1083 1073 1069 1066 1063 1060 1060 1060 1060 1056 1056 1053 1050 1047 1047 1047 1047 1044 1044 1028 1025 1025 1022 1022 1022 1022 1025 1028 1031 1034 1034 1037 1040 1044 1044 1044 1044 1044 1044 1044 1044 1044 1044 1044 1044 1044 1044 1044 1044 1047 1047 1047 1050 1053 1053 1056 1056 1060 1060 1060 1063 1063 1063 1066 1066 1069 1073 1076 1083 1086 1093 1097 1100 1107 1111 1114 1118 1125 1129 1136 1140 1140 1144 1144 1140 1144 0 0 0 0 0 0 0 0 0 0 0 0 0 0 588 588 588 588 589 589 590 590 591 591 591 592 592 593 594 594 595 595 595 596 595 595 595 595 595 596 596 597 597 598 599 600 600 600 600 601 601 603 604 604 605 605 605 605 606 606 607 608 608 608 608 609 609 609 610 610 611 612 612 613 614 614 615 615 617 617 617 618 618 618 619 620 620 621 621 621 621 622 623 622 624 625 625 625 627 627 627 628 629 629 629 629 630 631 631 631 631 632 634 634 635 635 635 636 636 636 637 637 638 638 639 639 641 642 642 643 643 644 644 644 645 645 647 648 648 649 649 650 650 651 653 653 654 654 654 654 655 655 656 658 658 659 659 659 660 661 661 663 663 663 663 664 664 664 664 665 667 667 668 668 669 669 670 670 673 673 673 673 674 676 676 677 677 678 678 680 680 681 681 682 684 684 684 685 685 686 686 688 689 691 691 689 689 689 0 0 0 0 0 0 0 0 0 0 0 0 0 0 0 0 0 0 0 0 0 0 0 0 0 0 0 0 0 0 0 0 0 0 0 0 0 0 0 0 0 0 0 0 0 0 0 0 0 3679 3679 3679 3718 3718 3718 3718 3718 3718 3718 3759 3759 3759 3800 3800 3800 3800 3759 3800 3759 3800 3759 3718 3718 3718 3718 3718 3718 3679 3718 3679 3679 3679 3679 3640 3602 3602 3602 3565 3565 3528 3528 3528 3493 3423 3390 3390 3390 3390 3390 3390 3390 3390 3390 3390 3357 3357 3324 3293 3262 3231 3231 3201 3231 3201 3201 3201 3201 3172 3201 3201 3201 3172 3172 3172 3143 3143
    0 0 0 0 0 0 0 0 0 0 0 0 0 0 0 0 0 0 0 0 0 0 0 0 0 0 0 0 0 0 0 0 0 0 0 0 0 0 0 0 0 0 0 0 0 0 0 0 0 0 0 0 0 0 0 0 0 0 0 0 0 0 0 0 0 0 0 0 0 0 0 0 0 0 0 0 0 0 0 0 0 2045 2045 2045 2045 2045 2057 2045 2057 2057 2057 2057 2057 2069 2082 2082 2095 2107 2120 2133 2147 2147 2160 2160 2174 2174 2174 2174 2174 2174 2187 2187 2174 2174 2174 2174 2201 2201 3357 3357 3357 3390 3390 3423 3423 3458 3423 3423 3390 3390 3390 3390 3390 3390 3390 3390 3423 3423 3423 3423 3423 3423 3423 3423 3390 3390 3390 3390 3357 3390 3390 3390 3390 3423 3423 3390 3390 3390 3390 3423 3423 3423 3423 3423 3423 3423 3423 3423 3423 3423 3423 3423 3423 0 0 3115 3115 3115 3115 3143 3172 3143 3201 3201 3201 3201 0 0 0 0 0 0 0 0 3172 3201 3172 3172 3172 3262 3293 3293 3357 3357 3357 3293 3293 3390 3390 3390 3390 3458 0 3458 0 0 1097 1097 1100 1100 1097 1076 1073 1066 1063 1060 1060 1060 1056 1053 1053 1050 1050 1047 1047 1047 1047 1044 1040 1025 1022 1022 1019 1022 1019 1022 1025 1025 1028 1031 1034 1034 1037 1040 1040 1040 1040 1040 1044 1044 1040 1044 1044 1044 1044 1044 1044 1044 1044 1044 1044 1047 1047 1050 1050 1050 1056 1056 1056 1060 1060 1063 1063 1066 1069 1069 1073 1076 1083 1086 1090 1093 1100 1107 1111 1114 1118 1125 1133 1136 1140 1140 1144 1144 1144 1144 0 0 0 0 0 0 0 0 0 0 0 0 0 588 588 588 588 588 589 589 590 590 591 591 592 592 592 593 594 595 595 595 595 596 595 595 595 595 595 596 596 597 598 598 599 600 600 601 601 601 603 603 604 604 605 605 605 605 606 606 607 608 608 608 608 609 609 609 610 611 611 612 613 613 614 614 615 617 617 617 617 618 618 618 619 620 620 621 621 621 621 622 623 623 625 625 625 625 627 627 627 628 629 630 630 630 630 631 631 632 631 632 634 634 635 635 635 636 636 636 637 637 638 638 639 639 641 642 643 643 643 644 644 644 645 645 647 648 648 649 649 650 651 651 653 653 654 654 654 655 655 656 658 658 658 659 659 660 660 661 663 663 663 664 664 664 664 665 665 667 667 667 668 668 669 669 670 672 673 673 673 674 676 676 677 677 678 678 680 680 680 681 682 684 684 684 685 685 686 686 688 689 691 691 691 689 689 689 0 0 0 0 0 0 0 0 0 0 0 0 0 0 0 0 0 0 0 0 0 0 0 0 0 0 0 0 0 0 0 0 0 0 0 0 0 0 0 0 0 0 0 0 0 0 0 0 0 3640 3679 3679 3718 3718 3718 3718 3718 3718 3718 3718 3759 3718 3759 3800 3800 3800 3800 3800 3759 3759 3718 3679 3679 3679 3679 3679 3718 3718 3718 3718 3718 3679 3679 3640 3602 3565 3565 3565 3528 3528 3493 3528 3528 3423 3390 3390 3390 3390 3390 3357 3390 3390 3390 3390 3357 3357 3324 3324 3262 3262 3231 3231 3231 3201 3201 3172 3172 3172 3172 3172 3172 3172 3172 3172 3172 3143
    0 0 0 0 0 0 0 0 0 0 0 0 0 0 0 0 0 0 0 0 0 0 0 0 0 0 0 0 0 0 0 0 0 0 0 0 0 0 0 0 0 0 0 0 0 0 0 0 0 0 0 0 0 0 0 0 0 0 0 0 0 0 0 0 0 0 0 0 0 0 0 0 0 0 0 0 0 0 0 0 0 2045 2045 2045 2045 2045 2045 2045 2057 2057 2057 2057 2057 2069 2082 2082 2095 2107 2120 2133 2147 2147 2160 2160 2174 2174 2174 2174 2160 2174 2174 2174 2160 2174 2174 2174 2174 3324 0 3357 3357 3390 3423 3423 3423 3423 3423 3423 3390 3390 3390 3390 3390 3390 3390 3390 3390 3390 3423 3423 3423 3423 3423 3390 3390 3390 3390 3390 3390 3390 3390 3390 3390 3390 3390 3390 3390 3390 3390 3390 3423 3390 3423 3390 3423 3423 3423 3423 3423 3423 3423 3423 3115 3115 3115 3115 3115 3115 3115 3143 3172 3143 3172 3172 3172 3201 3172 0 0 0 0 0 0 3143 3172 3172 3172 3172 3172 3201 3201 3231 3262 3262 3262 3293 3293 3293 3324 3423 3324 3293 0 3324 0 1100 1100 1100 1097 1093 1097 1076 1073 1069 1063 1060 1060 1056 1056 1053 1053 1050 1050 1047 1047 1047 1044 1040 1022 1022 1022 1022 1019 1019 1019 1022 1022 1022 1025 1031 1031 1034 1037 1040 1037 1040 1040 1040 1040 1040 1040 1040 1040 1040 1044 1044 1044 1044 1044 1044 1044 1047 1047 1050 1050 1050 1056 1056 1056 1056 1060 1060 1063 1063 1066 1069 1073 1073 1076 1083 1090 1093 1100 1107 1111 1114 1122 1125 1133 1140 1140 1144 1144 1144 1144 1148 0 0 0 0 0 0 0 0 0 0 0 0 0 588 588 588 588 588 588 589 589 590 590 591 592 592 593 594 595 595 596 596 596 596 596 595 595 595 596 596 596 597 598 599 599 600 600 601 601 603 603 603 604 604 605 605 605 606 606 607 607 608 608 609 609 609 609 610 610 611 611 612 613 613 614 614 615 617 617 617 617 618 618 618 619 620 620 621 621 621 621 622 623 623 625 625 625 625 627 627 628 629 630 630 630 630 631 631 631 632 631 632 634 634 635 635 635 636 636 636 637 637 638 638 639 639 639 641 642 643 643 644 644 645 647 647 647 648 649 649 650 650 651 653 653 653 654 654 654 655 655 656 658 659 659 659 659 660 660 661 661 663 663 664 664 664 664 665 667 667 668 668 668 669 669 670 670 672 673 673 673 674 676 676 677 677 678 680 680 680 681 682 684 684 684 684 685 685 686 686 688 689 691 691 691 689 689 689 0 0 0 0 0 0 0 0 0 0 0 0 0 0 0 0 0 0 0 0 0 0 0 0 0 0 0 0 0 0 0 0 0 0 0 0 0 0 0 0 0 0 0 0 0 0 0 0 0 0 3679 3679 3718 3718 3718 3718 3718 3718 3718 3718 3718 3718 3800 3842 3800 3800 3800 3800 3759 3759 3718 3679 3679 3679 3679 3679 3679 3718 3718 3718 3679 3679 3640 3602 3602 3602 3565 3565 3528 3528 3493 3493 3493 3458 3423 3423 3423 3390 3390 3357 3390 3390 3390 3357 3390 3390 3324 3293 3262 3262 3231 3231 3231 3201 3201 3201 3172 3172 3172 3201 3172 3172 3172 3201 3172 3143
    0 0 0 0 0 0 0 0 0 0 0 0 0 0 0 0 0 0 0 0 0 0 0 0 0 0 0 0 0 0 0 0 0 0 0 0 0 0 0 0 0 0 0 0 0 0 0 0 0 0 0 0 0 0 0 0 0 0 0 0 0 0 0 0 0 0 0 0 0 0 0 0 0 0 0 0 0 0 0 0 2033 2033 2045 2045 2045 2045 2045 2045 2045 2057 2057 2057 2069 2069 2082 2082 2095 2107 2120 2133 2147 2160 2160 2160 2174 2174 2174 2174 2160 2160 2174 2487 2487 2523 2523 2523 0 0 3324 3390 3390 3423 3423 3423 3423 3423 3423 3423 3390 3390 3390 3390 3390 3390 3390 3390 3390 3390 3390 3423 3423 3423 3423 3423 3423 3390 3390 3390 3390 3390 3390 3390 3390 3390 3390 3390 3390 3390 3390 3390 3390 3390 3390 3390 3390 3423 3423 3423 3390 3423 3423 3115 3115 3115 3115 3115 3115 3115 3143 3143 3143 3143 3143 3172 3172 3172 3172 0 0 0 0 0 0 3143 3143 3172 3172 3172 3172 3172 3201 3201 3201 3262 3262 3262 3262 3262 3293 3324 3324 3293 3324 3324 3262 1093 1093 1093 1090 1086 1090 1076 1073 1069 1063 1060 1056 1056 1056 1053 1050 1050 1047 1047 1047 1044 1044 1040 1022 1022 1019 1019 1019 1019 1019 1022 1022 1022 1025 1028 1031 1031 1034 1037 1037 1040 1040 1037 1040 1040 1040 1040 1040 1040 1044 1044 1044 1044 1044 1044 1044 1047 1047 1047 1047 1047 1053 1053 1053 1056 1060 1060 1063 1063 1066 1069 1069 1073 1076 1083 1086 1090 1097 1107 1111 1114 1122 1129 1136 1140 1140 1144 1144 1148 1148 0 0 0 0 0 0 0 0 0 0 0 0 0 0 0 588 588 589 588 589 589 590 590 591 591 592 592 593 594 595 595 595 596 596 596 596 595 595 595 596 596 597 598 598 599 600 600 600 601 603 603 604 604 605 605 605 605 606 606 607 607 608 608 609 609 609 609 609 610 610 611 611 612 613 614 615 614 615 617 617 617 617 618 618 618 619 620 620 621 621 621 621 622 623 624 625 625 625 627 627 628 628 629 630 630 630 630 631 631 631 632 632 634 634 635 635 635 636 636 636 637 637 638 638 639 639 639 639 642 642 643 644 644 645 645 647 648 648 648 649 649 650 651 651 653 653 654 654 654 655 655 656 658 658 659 659 659 659 660 660 661 661 663 663 664 664 664 665 667 667 668 668 668 669 669 669 670 670 672 673 673 673 674 676 676 677 677 678 680 680 681 681 682 684 684 684 684 685 685 686 688 688 689 691 691 691 689 689 691 0 0 0 0 0 0 0 0 0 0 0 0 0 0 0 0 0 0 0 0 0 0 0 0 0 0 0 0 0 0 0 0 0 0 0 0 0 0 0 0 0 0 0 0 0 0 0 0 0 3679 3679 3679 3718 3718 3718 3718 3718 3679 3718 3718 3718 3718 3800 3800 3800 3800 3800 3800 3759 3759 3718 3679 3679 3679 3679 3679 3679 3679 3718 3679 3679 3679 3640 3602 3602 3602 3565 3528 3528 3493 3493 3493 3493 3423 3423 3423 3423 3390 3390 3390 3357 3390 3390 3357 3357 3357 3324 3324 3293 3262 3262 3231 3231 3201 3201 3201 3172 3172 3172 3143 3143 3143 3143 3143 3143 3143
    0 0 0 0 0 0 0 0 0 0 0 0 0 0 0 0 0 0 0 0 0 0 0 0 0 0 0 0 0 0 0 0 0 0 0 0 0 0 0 0 0 0 0 0 0 0 0 0 0 0 0 0 0 0 0 0 0 0 0 0 0 0 0 0 0 0 0 0 0 0 0 0 0 0 0 0 0 0 0 2033 2033 2033 2033 2045 2045 2045 2045 2045 2045 2057 2057 2057 2069 2069 2082 2082 2095 2107 2120 2133 2147 2160 2160 2160 2174 2174 2174 2174 2160 2160 2160 2487 2487 2487 2505 2505 2505 3262 3324 3324 3357 3390 3423 3423 3423 3423 3423 3423 3390 3390 3390 3390 3390 3390 3390 3390 3390 3390 3390 3390 3423 3390 3423 3423 3390 3390 3390 3390 3357 3390 3390 3390 3390 3390 3390 3423 3390 3390 3390 3390 3390 3390 3390 3390 3390 3390 3423 3423 3390 3423 3390 3143 3143 3143 3143 3115 3115 3143 3143 3143 3143 3143 3143 3172 3143 3143 3172 3172 0 0 0 0 0 0 3172 3172 3172 3172 3172 3172 3201 3201 3201 3231 3231 3262 3262 3262 3262 3293 3293 3293 3293 3262 3262 3231 1090 1090 1086 1086 1086 1076 1073 1069 1063 1060 1056 1056 1056 1053 1050 1050 1050 1047 1047 1047 1044 1040 1022 1019 1016 1016 1016 1016 1019 1019 1019 1022 1025 1025 1028 1031 1034 1034 1034 1037 1037 1037 1040 1040 1037 1037 1040 1040 1040 1040 1040 1040 1044 1044 1044 1044 1047 1047 1047 1047 1050 1053 1053 1056 1056 1060 1060 1063 1066 1066 1069 1073 1076 1079 1083 1086 1093 1104 1111 1114 1122 1129 1136 1140 1144 1144 1144 1148 1148 0 0 0 0 0 0 0 0 0 0 0 0 0 0 0 588 588 588 588 589 589 590 590 591 591 592 593 593 594 594 595 595 596 596 596 596 595 595 596 596 597 598 598 599 599 600 600 601 601 603 604 604 604 605 605 605 606 606 607 607 607 608 608 609 609 609 609 610 610 611 611 612 612 613 613 614 614 615 617 617 617 618 618 618 619 620 620 621 621 621 621 621 622 623 624 625 625 627 627 628 628 629 629 630 630 630 630 631 631 632 632 632 634 635 635 635 636 636 636 637 637 637 638 638 639 639 639 641 642 642 643 644 644 645 647 647 648 648 649 649 650 650 651 653 653 653 654 654 655 655 656 658 658 659 659 659 659 659 660 660 661 663 663 664 664 664 665 665 667 668 668 668 669 669 669 669 670 672 672 673 673 673 674 676 676 677 677 678 680 680 681 682 682 684 684 684 684 685 685 686 688 689 689 691 691 691 689 691 691 0 0 0 0 0 0 0 0 0 0 0 0 0 0 0 0 0 0 0 0 0 0 0 0 0 0 0 0 0 0 0 0 0 0 0 0 0 0 0 0 0 0 0 0 0 0 0 0 3679 3679 3718 3718 3718 3718 3718 3718 3718 3718 3718 3718 3718 3679 3800 3800 3800 3800 3800 3800 3759 3759 3718 3679 3679 3679 3679 3679 3679 3679 3679 3679 3679 3640 3602 3602 3602 3602 3565 3528 3528 3528 3493 3493 3493 3423 3423 3423 3423 3423 3390 3390 3357 3357 3357 3357 3357 3357 3324 3324 3324 3293 3262 3231 3231 3231 3201 3201 3172 3172 3172 3143 3143 3143 3143 3143 3143 3143
    0 0 0 0 0 0 0 0 0 0 0 0 0 0 0 0 0 0 0 0 0 0 0 0 0 0 0 0 0 0 0 0 0 0 0 0 0 0 0 0 0 0 0 0 0 0 0 0 0 0 0 0 0 0 0 0 0 0 0 0 0 0 0 0 0 0 0 0 0 0 0 0 0 0 0 0 0 0 0 2021 2033 2033 2033 2033 2033 2045 2045 2045 2045 2045 2057 2057 2069 2069 2069 2082 2095 2107 2120 2133 2147 2160 2160 2160 2160 2160 2160 2542 2542 2523 2505 2487 2487 2487 2505 2505 2505 3262 3262 3324 3357 3390 3390 3390 3423 3423 3423 3423 3390 3390 3390 3390 3390 3390 3390 3390 3390 3390 3390 3390 3390 3390 3423 3390 3390 3390 3390 3390 3390 3390 3390 3390 3390 3390 3390 3390 3390 3390 3390 3390 3390 3390 3390 3390 3390 3423 3423 3423 3390 3423 3390 3143 3143 3143 3143 3143 3143 3143 3143 3172 3143 3143 3143 3172 3172 3172 3172 0 0 0 0 0 0 0 3172 3172 3172 3172 3172 3172 3201 3201 3201 3201 3231 3231 3231 3231 3231 3262 3262 3262 3262 3262 3231 3231 1090 1090 1086 1083 1083 1073 1069 1066 1063 1056 1056 1056 1053 1053 1050 1050 1050 1047 1047 1047 1040 1019 1019 1019 1016 1013 1016 1016 1016 1019 1019 1019 1022 1025 1028 1028 1031 1034 1034 1037 1037 1037 1037 1037 1037 1037 1037 1037 1040 1040 1040 1040 1040 1044 1044 1044 1044 1047 1047 1047 1047 1050 1053 1056 1056 1060 1060 1060 1063 1066 1069 1073 1076 1079 1086 1090 1097 1100 1107 1114 1118 1129 1136 1140 1140 1144 1144 1144 1144 1148 0 0 0 0 0 0 0 0 0 0 0 0 0 0 0 588 589 588 589 589 590 591 591 592 592 593 593 594 595 595 595 596 596 596 596 596 596 596 597 597 598 598 599 599 600 600 601 601 603 604 604 604 605 605 605 606 606 607 607 608 608 608 609 609 609 610 610 610 611 612 612 612 613 613 614 615 615 617 617 617 618 618 619 619 620 621 621 621 621 621 622 622 624 625 625 627 627 627 628 628 629 629 630 630 631 631 631 632 632 634 632 634 635 635 635 636 636 636 636 637 637 638 638 639 639 641 641 642 643 643 644 644 645 647 648 648 648 649 649 650 650 651 653 653 654 654 655 655 655 656 658 658 659 659 659 659 659 660 660 661 661 663 663 664 664 665 665 667 668 668 668 668 669 669 670 670 672 672 673 673 673 674 677 677 678 678 680 681 681 682 682 684 684 684 684 684 685 685 686 688 689 689 691 691 692 691 691 691 0 0 0 0 0 0 0 0 0 0 0 0 0 0 0 0 0 0 0 0 0 0 0 0 0 0 0 0 0 0 0 0 0 0 0 0 0 0 0 0 0 0 0 0 0 0 0 0 3679 3679 3718 3718 3718 3718 3718 3679 3679 3679 3679 3679 3679 3679 3759 3800 3800 3800 3800 3718 3759 3759 3718 3679 3679 3679 3679 3679 3679 3679 3679 3679 3679 3602 3640 3602 3602 3602 3565 3528 3528 3528 3493 3528 3493 3423 3423 3423 3390 3390 3390 3390 3357 3390 3357 3357 3324 3357 3324 3293 3293 3293 3262 3231 3231 3231 3231 3201 3172 3172 3172 3172 3143 3143 3143 3143 3143 3115
    0 0 0 0 0 0 0 0 0 0 0 0 0 0 0 0 0 0 0 0 0 0 0 0 0 0 0 0 0 0 0 0 0 0 0 0 0 0 0 0 0 0 0 0 0 0 0 0 0 0 0 0 0 0 0 0 0 0 0 0 0 0 0 0 0 0 0 0 0 0 0 0 0 0 0 0 0 0 2021 2033 2033 2033 2033 2033 2033 2045 2045 2045 2045 2045 2057 2057 2069 2069 2069 2082 2095 2095 2107 2133 2147 2160 2160 2160 2160 2560 2542 2542 2523 2523 2505 2505 2487 2487 2505 2487 2487 3262 3262 3293 3357 3390 3390 3423 3390 3423 3423 3423 3390 3390 3390 3390 3390 3390 3390 3390 3390 3390 3390 3390 3390 3390 3390 3390 3390 3390 3390 3390 3390 3390 3390 3390 3390 3390 3390 3390 3390 3390 3390 3390 3390 3390 3390 3390 3390 3390 3423 3423 3423 3423 3423 3143 3143 3143 3143 3143 3143 3172 3172 3172 3172 3172 3172 3201 3172 3201 3201 0 0 0 0 0 0 0 3172 3172 3172 3172 3172 3172 3201 3201 3201 3262 3231 3231 3231 3231 3231 3262 3262 3262 3262 3262 3262 3262 1093 1093 1086 1086 1086 1066 1066 1066 1060 1053 1053 1053 1050 1050 1047 1047 1047 1044 1044 1044 1040 1016 1016 1016 1013 1013 1013 1013 1016 1019 1019 1019 1022 1025 1028 1028 1031 1031 1034 1034 1034 1034 1037 1037 1037 1037 1037 1037 1037 1037 1037 1037 1040 1040 1040 1044 1044 1044 1047 1044 1047 1047 1050 1053 1056 1056 1060 1063 1066 1066 1069 1073 1076 1079 1083 1086 1093 1100 1107 1114 1118 1129 1136 1136 1140 1144 1144 1144 1144 1148 0 0 0 0 0 0 0 0 0 0 0 0 0 0 0 588 589 589 589 590 590 591 591 592 592 593 593 594 594 595 595 595 595 596 596 596 596 596 597 597 598 598 599 599 600 600 601 601 603 604 604 604 605 605 606 606 607 607 607 608 608 608 609 609 609 610 610 610 611 612 612 613 613 614 614 615 615 617 617 617 618 618 619 619 620 621 621 621 621 621 622 623 624 625 627 627 627 627 628 629 629 630 630 630 631 631 631 632 632 634 634 634 635 635 635 635 636 636 636 636 637 638 638 639 639 641 641 642 642 643 644 644 647 648 648 648 649 649 649 650 650 651 653 654 654 654 655 655 655 656 658 658 659 659 659 659 659 660 660 661 661 663 663 664 665 665 667 668 668 668 668 668 669 669 670 672 672 673 673 673 674 674 677 677 680 680 681 682 682 682 682 684 684 684 684 684 685 685 686 688 689 691 691 691 692 691 691 692 0 0 0 0 0 0 0 0 0 0 0 0 0 0 0 0 0 0 0 0 0 0 0 0 0 0 0 0 0 0 0 0 0 0 0 0 0 0 0 0 0 0 0 0 0 0 0 3718 3718 3718 3718 3718 3718 3718 3718 3718 3679 3679 3679 3679 3679 3679 3679 3800 3800 3759 3759 3759 3718 3718 3679 3679 3679 3679 3679 3679 3679 3679 3679 3679 3679 3602 3565 3565 3565 3565 3565 3493 3528 3493 3493 3528 3493 3423 3423 3423 3390 3390 3357 3357 3357 3357 3357 3324 3324 3324 3293 3293 3293 3262 3262 3231 3231 3231 3231 3201 3172 3172 3172 3172 3143 3143 3143 3143 3115 3115
    0 0 0 0 0 0 0 0 0 0 0 0 0 0 0 0 0 0 0 0 0 0 0 0 0 0 0 0 0 0 0 0 0 0 0 0 0 0 0 0 0 0 0 0 0 0 0 0 0 0 0 0 0 0 0 0 0 0 0 0 0 0 0 0 0 0 0 0 0 0 0 0 0 0 0 0 0 2009 2021 2021 2033 2033 2033 2033 2045 2045 2045 2045 2045 2045 2057 2057 2069 2069 2069 2082 2095 2095 2107 2133 2147 2160 2160 2560 2542 2542 2523 2523 2523 2505 2505 2487 2505 2505 2505 2505 2505 2505 3262 3324 3357 3390 3390 3390 3390 3390 3423 3423 3390 3390 3390 3390 3390 3390 3390 3390 3390 3390 3390 3390 3390 3390 3390 3390 3390 3390 3390 3390 3390 3390 3357 3390 3390 3390 3390 3390 3390 3390 3390 3390 3390 3390 3390 3390 3390 3423 3423 3423 3423 3423 3423 3143 3143 3172 3172 3172 3172 3172 3172 3172 3172 3172 3201 3231 3231 3231 3231 3231 3231 0 0 0 0 0 0 3172 3172 3172 3201 3201 3201 3231 3231 3262 3262 3262 3262 3262 3262 3262 3293 3262 3262 3262 3262 3262 3262 1090 1086 1083 1083 1066 1063 1063 1060 1053 1050 1050 1050 1047 1047 1044 1044 1047 1044 1044 1013 1013 1013 1010 1010 1010 1013 1013 1013 1016 1019 1019 1022 1025 1025 1025 1031 1031 1031 1034 1034 1034 1034 1034 1034 1034 1034 1034 1037 1037 1037 1037 1037 1040 1040 1040 1044 1044 1044 1044 1044 1047 1050 1053 1053 1056 1060 1060 1063 1066 1069 1073 1073 1079 1083 1086 1093 1100 1107 1111 1118 1125 1133 1136 1140 1144 1144 1144 1144 1148 0 0 0 0 0 0 0 0 0 0 0 0 0 0 0 589 589 589 590 590 590 591 592 592 593 593 594 594 595 595 595 595 595 596 596 596 596 597 597 598 599 599 599 600 600 601 601 601 603 604 604 605 605 605 606 606 607 607 608 608 608 609 609 609 609 610 611 611 612 612 612 613 613 614 615 617 617 617 618 618 618 619 619 620 620 621 621 621 621 621 622 623 625 627 627 627 628 628 629 629 630 630 630 631 631 631 632 632 634 635 634 634 635 635 635 635 636 635 636 637 637 638 638 639 639 641 642 642 643 643 644 645 648 648 648 649 649 649 649 650 650 651 653 654 654 654 654 654 655 656 658 659 659 659 659 659 660 660 661 661 663 663 664 664 665 665 667 668 668 668 668 669 669 670 670 672 672 673 673 674 676 676 677 677 680 680 681 682 682 682 682 682 684 684 684 684 685 685 686 688 689 691 692 692 692 691 691 692 0 0 0 0 0 0 0 0 0 0 0 0 0 0 0 0 0 0 0 0 0 0 0 0 0 0 0 0 0 0 0 0 0 0 0 0 0 0 0 0 0 0 0 0 0 0 0 3718 3718 3718 3718 3718 3718 3718 3718 3718 3718 3718 3679 3679 3679 3679 3759 3759 3759 3759 3759 3759 3718 3718 3718 3718 3718 3679 3679 3679 3679 3640 3640 3640 3565 3565 3565 3565 3528 3528 3528 3493 3528 3493 3493 3528 3493 3423 3390 3423 3390 3390 3357 3357 3357 3357 3357 3324 3324 3324 3293 3293 3293 3262 3262 3231 3231 3231 3231 3201 3172 3172 3172 3172 3172 3172 3172 3172 3115 3115
    0 0 0 0 0 0 0 0 0 0 0 0 0 0 0 0 0 0 0 0 0 0 0 0 0 0 0 0 0 0 0 0 0 0 0 0 0 0 0 0 0 0 0 0 0 0 0 0 0 0 0 0 0 0 0 0 0 0 0 0 0 0 0 0 0 0 0 0 0 0 0 0 0 0 0 0 0 2009 2021 2021 2033 2033 2033 2033 2033 2045 2045 2045 2045 2045 2057 2057 2057 2069 2069 2082 2082 2095 2107 2133 2160 2174 2580 2560 2542 2523 2505 2523 2523 2505 2505 2505 2505 2505 2505 2505 2505 2505 3293 3357 3390 3390 3390 3390 3390 3423 3423 3423 3390 3390 3390 3390 3390 3390 3390 3357 3357 3390 3390 3390 3390 3390 3390 3390 3390 3390 3390 3390 3390 3390 3390 3390 3390 3390 3390 3390 3390 3390 3390 3390 3390 3390 3390 3390 3390 3390 3423 3423 3423 3423 3390 3143 3143 3172 3172 3172 3201 3201 3201 3201 3201 3172 3201 3231 3201 3231 3231 3231 3262 0 0 0 0 0 3172 3201 3172 3201 3201 3201 3201 3231 3231 3293 3262 3262 3262 3262 3262 3293 3293 3293 3293 3293 3293 3293 3293 1090 1090 1076 1076 1060 1060 1060 1060 1050 1050 1050 1050 1047 1047 1044 1044 1047 1044 1044 1010 1010 1010 1010 1010 1010 1010 1013 1013 1016 1016 1019 1022 1022 1025 1025 1028 1031 1031 1034 1034 1034 1034 1034 1034 1034 1034 1034 1034 1034 1034 1034 1037 1037 1040 1040 1044 1044 1044 1044 1047 1047 1050 1053 1056 1056 1060 1060 1063 1066 1069 1069 1073 1076 1079 1086 1090 1097 1104 1111 1111 1118 1122 1140 1140 1144 1144 1148 1148 1148 0 0 0 0 0 0 0 0 0 0 0 0 0 0 0 589 590 590 590 591 591 591 592 592 593 593 594 594 594 595 595 595 595 596 596 596 596 597 598 599 599 599 600 600 601 601 601 601 603 604 604 605 605 606 606 607 607 608 608 608 609 609 609 610 610 611 611 612 612 613 613 613 614 615 617 617 617 618 618 618 618 619 619 620 620 621 621 621 621 622 622 624 625 627 628 628 628 629 629 630 630 630 631 631 631 632 632 634 634 635 634 635 635 635 635 635 636 636 636 637 638 638 639 641 641 642 642 642 643 643 644 647 648 648 649 649 649 650 650 650 651 653 653 654 654 654 654 655 655 658 659 659 659 659 659 660 660 661 661 663 663 663 664 664 665 667 667 668 668 668 669 669 670 670 672 672 673 673 674 674 674 676 677 677 680 680 681 682 682 682 684 684 684 684 684 685 685 686 686 688 689 691 692 692 692 691 692 692 0 0 0 0 0 0 0 0 0 0 0 0 0 0 0 0 0 0 0 0 0 0 0 0 0 0 0 0 0 0 0 0 0 0 0 0 0 0 0 0 0 0 0 0 0 0 3800 3842 3759 3759 3718 3718 3759 3718 3718 3718 3718 3718 3679 3679 3679 3679 3679 3759 3759 3759 3800 3718 3718 3759 3718 3718 3718 3679 3679 3679 3640 3640 3640 3640 3565 3565 3565 3565 3528 3528 3528 3528 3528 3493 3528 3528 3493 3423 3423 3423 3390 3390 3357 3324 3324 3357 3324 3293 3293 3293 3357 3293 3357 3262 3262 3231 3231 3231 3231 3201 3172 3201 3201 3201 3201 3201 3201 3172 3115 3115
    0 0 0 0 0 0 0 0 0 0 0 0 0 0 0 0 0 0 0 0 0 0 0 0 0 0 0 0 0 0 0 0 0 0 0 0 0 0 0 0 0 0 0 0 0 0 0 0 0 0 0 0 0 0 0 0 0 0 0 0 0 0 0 0 0 0 0 0 0 0 0 0 0 0 0 0 0 2009 2021 2021 2033 2033 2033 2033 2033 2033 2045 2045 2045 2045 2045 2057 2057 2057 2057 2069 2082 2082 2107 2120 2147 2542 2542 2542 2523 2523 2505 2505 2505 2505 2505 2505 2505 2505 2523 2505 2505 2523 3324 3357 3390 3390 3390 3390 3390 3423 3423 3423 3390 3390 3390 3390 3390 3390 3390 3357 3357 3357 3357 3390 3390 3390 3390 3390 3390 3390 3390 3390 3390 3390 3390 3390 3390 3390 3390 3390 3390 3390 3390 3390 3390 3390 3390 3390 3390 3390 3390 3423 3423 3423 3423 3423 3423 3143 3172 3172 3172 3201 3231 3201 3201 3172 3231 3231 3231 3262 3262 3262 3262 0 0 0 0 0 0 3231 3231 3231 3231 3231 3231 3262 3262 3262 3262 3262 3293 3293 3293 3293 3293 3293 3324 3293 3262 3262 3262 3172 1076 1076 1060 1060 1060 1056 1056 1050 1050 1050 1047 1047 1047 1047 1047 1047 1044 1047 1007 1007 1007 1007 1007 1007 1010 1010 1013 1013 1016 1016 1019 1022 1022 1025 1028 1028 1031 1031 1031 1034 1034 1034 1034 1034 1034 1034 1034 1034 1034 1034 1034 1034 1037 1040 1040 1044 1044 1044 1047 1047 1050 1053 1056 1056 1060 1060 1063 1066 1066 1069 1073 1076 1079 1083 1090 1097 1100 1104 1111 1114 1122 1125 1140 1144 1144 1148 1148 1144 0 0 0 0 0 0 0 0 0 0 0 0 0 0 0 0 590 590 590 591 591 591 592 592 593 593 594 594 595 595 595 596 595 596 596 597 597 598 598 599 599 599 600 600 601 601 601 601 603 604 604 605 605 605 606 607 608 608 608 609 609 609 609 610 610 611 611 611 612 612 613 613 614 615 617 617 617 618 618 618 618 619 620 620 621 621 621 622 622 622 623 623 625 627 628 628 629 629 630 630 630 631 631 631 631 632 632 634 634 635 635 635 635 636 636 636 637 637 637 638 638 639 639 641 641 642 643 643 643 644 644 645 648 648 649 649 649 649 650 650 651 653 653 654 654 654 655 655 656 656 658 659 659 659 659 660 661 661 663 663 663 664 664 664 665 667 667 668 668 669 669 669 670 670 672 673 673 674 674 674 676 676 677 677 680 681 681 682 682 682 684 684 684 684 684 685 685 685 686 688 691 692 692 692 693 692 692 693 0 0 0 0 0 0 0 0 0 0 0 0 0 0 0 0 0 0 0 0 0 0 0 0 0 0 0 0 0 0 0 0 0 0 0 0 0 0 0 0 0 0 0 0 0 3759 3759 3759 3718 3718 3718 3718 3718 3718 3718 3718 3718 3679 3679 3718 3679 3679 3759 3759 3759 3759 3759 3759 3718 3759 3759 3718 3718 3679 3679 3640 3640 3602 3640 3640 3602 3565 3565 3565 3528 3528 3528 3493 3528 3528 3528 3528 3528 3458 3423 3423 3390 3390 3357 3324 3324 3357 3324 3293 3293 3293 3357 3357 3357 3231 3231 3231 3231 3231 3231 3201 3201 3231 3231 3231 3201 3201 3201 3115 3115 3115
    0 0 0 0 0 0 0 0 0 0 0 0 0 0 0 0 0 0 0 0 0 0 0 0 0 0 0 0 0 0 0 0 0 0 0 0 0 0 0 0 0 0 0 0 0 0 0 0 0 0 0 0 0 0 0 0 0 0 0 0 0 0 0 0 0 0 0 0 0 0 0 0 0 0 0 0 0 2021 2021 2033 2033 2045 2033 2033 2033 2045 2045 2045 2045 2045 2045 2057 2057 2057 2057 2069 2069 2082 2095 2107 2560 2560 2560 2542 2523 2523 2505 2505 2505 2487 2505 2487 2505 2505 2505 2505 3390 3390 3357 3390 3390 3390 3423 3423 3423 3423 3423 3423 3390 3390 3390 3390 3390 3390 3390 3357 3357 3357 3357 3390 3390 3390 3390 3390 3390 3390 3390 3390 3390 3390 3390 3390 3390 3390 3390 3390 3390 3390 3390 3390 3390 3390 3390 3390 3390 3390 3390 3390 3390 3390 3390 3390 0 3143 3143 3172 3172 3201 3201 3231 3231 3201 3231 3231 3231 3262 3262 3262 0 0 0 0 0 0 0 3262 3262 3231 3231 3231 3262 3262 3262 3262 3262 3262 3293 3293 3293 3293 3293 3293 3293 3293 3262 3262 3262 3262 1073 1073 1060 1060 1056 1060 1053 1050 1050 1047 1047 1044 1047 1047 1044 1044 1044 1004 1004 1001 1004 1004 1004 1007 1007 1010 1010 1013 1013 1016 1019 1019 1022 1022 1025 1028 1028 1031 1031 1031 1031 1034 1034 1034 1034 1034 1034 1034 1034 1034 1034 1034 1034 1040 1040 1044 1044 1044 1047 1047 1047 1050 1053 1056 1056 1060 1063 1066 1066 1069 1073 1076 1079 1083 1090 1093 1100 1104 1111 1114 1122 1125 1136 1140 1144 1144 1144 1148 0 0 0 0 0 0 0 0 0 0 0 0 0 0 0 0 591 591 591 591 591 592 592 593 593 593 594 594 595 595 595 595 595 596 596 597 597 598 598 599 599 599 600 600 600 601 601 603 603 604 604 605 605 606 606 607 608 608 608 609 609 609 609 610 610 611 611 612 612 612 613 613 614 615 617 617 618 618 618 618 619 620 620 620 621 621 621 622 622 622 623 624 625 628 629 629 629 630 630 630 631 631 631 631 632 634 634 634 635 635 635 635 636 636 636 636 637 637 637 638 638 639 641 641 642 643 643 643 643 644 644 648 649 649 649 649 649 650 650 650 651 653 654 654 654 655 655 656 656 658 659 659 659 659 659 660 661 663 663 664 664 664 665 665 665 667 667 668 668 669 669 670 670 672 673 673 674 676 676 676 676 677 677 678 680 681 682 682 682 684 684 684 684 684 684 685 685 686 688 689 691 692 692 693 693 692 692 0 0 0 0 0 0 0 0 0 0 0 0 0 0 0 0 0 0 0 0 0 0 0 0 0 0 0 0 0 0 0 0 0 0 0 0 0 0 0 0 0 0 0 0 0 0 3718 3718 3718 3718 3718 3718 3718 3718 3718 3679 3679 3679 3679 3679 3679 3679 3679 3759 3759 3718 3759 3759 3718 3718 3759 3759 3759 3759 3718 3718 3679 3679 3640 3640 3640 3640 3565 3565 3528 3493 3493 3493 3458 3493 3493 3493 3493 3493 3423 3423 3423 3390 3390 3324 3324 3324 3357 3357 3324 3324 3357 3357 3357 3357 3231 3231 3231 3231 3231 3231 3262 3231 3231 3231 3231 3201 3201 3201 3172 3115 3115
    0 0 0 0 0 0 0 0 0 0 0 0 0 0 0 0 0 0 0 0 0 0 0 0 0 0 0 0 0 0 0 0 0 0 0 0 0 0 0 0 0 0 0 0 0 0 0 0 0 0 0 0 0 0 0 0 0 0 0 0 0 0 0 0 0 0 0 0 0 0 0 0 0 0 0 0 0 0 2033 2033 2033 2045 2033 2033 2045 2045 2045 2045 2045 2045 2045 2057 2057 2057 2057 2069 2069 2082 2095 2107 2542 2560 2560 2542 2523 2523 2523 2523 2505 2505 2505 2505 2505 2523 2523 2542 3423 3423 3357 3390 3390 3390 3390 3423 3390 3423 3423 3423 3390 3390 3390 3390 3390 3390 3357 3357 3357 3357 3357 3390 3357 3390 3390 3390 3390 3390 3390 3390 3390 3390 3390 3390 3390 3390 3390 3390 3390 3390 3390 3390 3390 3390 3390 3390 3390 3390 3390 3390 3390 3390 3390 3390 0 3143 3143 3172 3172 3172 3201 3231 3231 3231 3262 3262 3262 3293 3293 3293 3293 0 3357 3357 3390 3390 3293 3293 3293 3262 3262 3262 3262 3293 3293 3293 3262 3262 3293 3293 3293 3293 3293 3293 3293 3293 3262 3262 3231 3231 1063 1063 1063 1060 1056 1056 1050 1050 1047 1047 1044 1044 1047 1047 1044 1044 1047 1001 1001 1001 1001 1001 1001 1004 1007 1007 1010 1013 1013 1013 1016 1019 1022 1022 1025 1028 1028 1031 1031 1031 1031 1034 1031 1031 1031 1031 1034 1031 1034 1034 1034 1034 1034 1037 1040 1044 1044 1044 1044 1047 1047 1050 1053 1053 1056 1056 1060 1063 1066 1069 1073 1076 1079 1083 1090 1097 1100 1104 1107 1114 1125 1125 1129 1140 1140 1144 1144 1144 0 0 0 0 0 0 0 0 0 0 0 0 0 0 0 0 591 591 591 591 592 592 592 593 593 593 594 594 594 595 595 595 595 596 596 597 597 598 599 599 600 600 600 600 601 601 601 603 603 604 604 605 605 605 606 607 608 608 608 609 609 609 609 610 610 611 611 612 612 613 613 614 615 617 617 617 618 618 618 619 619 620 621 621 621 622 622 622 622 623 624 625 627 628 628 629 629 629 630 630 631 631 631 632 632 634 634 635 635 636 635 635 636 637 637 637 637 637 638 638 638 639 641 642 642 642 643 643 644 643 644 648 649 649 649 649 650 650 650 651 651 653 654 654 655 655 656 656 656 658 659 659 659 659 659 660 661 663 663 664 663 664 665 665 667 667 668 668 668 669 669 670 672 672 673 674 674 674 676 676 676 677 678 680 681 682 682 682 684 684 684 684 684 684 685 685 686 686 688 689 692 693 693 695 695 693 0 0 0 0 0 0 0 0 0 0 0 0 0 0 0 0 0 0 0 0 0 0 0 0 0 0 0 0 0 0 0 0 0 0 0 0 0 0 0 0 0 0 0 0 0 0 0 3679 3718 3718 3679 3679 3679 3718 3718 3718 3679 3679 3718 3679 3679 3679 3679 3759 3759 3759 3718 3718 3759 3718 3718 3759 3759 3800 3759 3759 3718 3718 3679 3640 3640 3640 3640 3528 3528 3528 3493 3493 3493 3458 3493 3493 3493 3458 3493 3423 3423 3390 3390 3390 3324 3324 3324 3357 3357 3324 3324 3357 3357 3357 3357 3231 3231 3231 3231 3231 3231 3262 3231 3231 3231 3201 3201 3201 3172 3172 3115 3115
    0 0 0 0 0 0 0 0 0 0 0 0 0 0 0 0 0 0 0 0 0 0 0 0 0 0 0 0 0 0 0 0 0 0 0 0 0 0 0 0 0 0 0 0 0 0 0 0 0 0 0 0 0 0 0 0 0 0 0 0 0 0 0 0 0 0 0 0 0 0 0 0 0 0 0 0 0 0 2033 2033 2033 2045 2033 2033 2045 2045 2045 2045 2045 2045 2045 2057 2057 2057 2057 2057 2069 2069 2082 2523 2523 2542 2542 2523 2523 2523 2505 2505 2505 2487 2505 2505 2505 2523 2505 2505 3423 3423 3390 3390 3390 3390 3423 3423 3423 3423 3423 3423 3390 3390 3390 3357 3390 3390 3357 3357 3357 3357 3357 3357 3357 3357 3390 3390 3390 3423 3390 3390 3390 3390 3390 3390 3357 3390 3390 3390 3390 3390 3390 3390 3390 3390 3390 3390 3390 3390 3390 3390 3390 3390 3390 0 0 0 0 3172 3172 3201 3201 3201 3231 3262 3262 3262 3293 3293 3324 3293 3357 3390 3390 3390 3390 3390 3390 3293 3293 3293 3262 3293 3293 3293 3324 3293 3293 3262 3293 3293 3293 3293 3293 3293 3293 3293 3293 3262 3262 3201 1063 1063 1063 1060 1056 1056 1050 1050 1047 1047 1044 1044 1044 1044 1044 1044 998 998 998 998 998 998 998 1001 1004 1007 1010 1010 1010 1013 1013 1016 1019 1022 1025 1028 1028 1031 1031 1031 1031 1031 1031 1031 1031 1031 1031 1031 1034 1034 1034 1034 1034 1037 1040 1044 1044 1044 1047 1047 1047 1050 1050 1053 1056 1056 1060 1063 1066 1069 1073 1076 1079 1086 1093 1100 1104 1107 1111 1114 1125 1125 1133 1140 1140 1144 1144 0 0 0 0 0 0 0 0 0 0 0 0 0 0 0 0 591 591 591 592 592 592 593 593 593 593 594 594 595 595 595 595 595 596 596 597 598 598 598 599 599 600 600 600 600 601 601 601 603 603 604 604 605 605 606 606 607 608 608 609 609 609 609 610 610 610 611 611 612 612 613 613 615 615 617 618 617 618 618 618 618 619 621 621 621 622 622 622 622 623 624 625 625 627 628 628 628 629 629 630 630 631 631 632 632 634 634 634 635 635 636 635 635 636 637 637 637 638 638 638 639 639 641 642 642 642 642 643 643 644 643 647 648 649 649 649 649 650 650 650 651 651 653 654 654 655 655 656 658 658 658 659 659 659 659 659 661 663 663 664 664 664 664 665 667 667 668 668 668 668 669 669 670 672 672 673 674 674 676 677 676 677 678 680 680 681 682 682 684 684 684 684 684 684 685 685 685 686 688 689 691 693 693 695 695 695 0 0 0 0 0 0 0 0 0 0 0 0 0 0 0 0 0 0 0 0 0 0 0 0 0 0 0 0 0 0 0 0 0 0 0 0 0 0 0 0 0 0 0 0 0 0 0 0 0 3679 3679 3679 3679 3679 3718 3718 3718 3718 3679 3718 3679 3679 3679 3679 3718 3679 3679 3679 3718 3718 3718 3718 3759 3800 3800 3800 3759 3718 3718 3679 3640 3640 3640 3640 3528 3528 3528 3493 3493 3493 3458 3493 3493 3493 3458 3493 3423 3423 3390 3390 3357 3324 3324 3324 3357 3357 3357 3357 3357 3357 3357 3357 3231 3231 3231 3231 3231 3262 3231 3231 3231 3231 3231 3201 3201 3172 3172 3143 3143
    0 0 0 0 0 0 0 0 0 0 0 0 0 0 0 0 0 0 0 0 0 0 0 0 0 0 0 0 0 0 0 0 0 0 0 0 0 0 0 0 0 0 0 0 0 0 0 0 0 0 0 0 0 0 0 0 0 0 0 0 0 0 0 0 0 0 0 0 0 0 0 0 0 0 0 0 0 0 2045 2033 2033 2033 2033 2033 2033 2045 2045 2045 2045 2045 2045 2057 2057 2057 2057 2057 2057 2069 2069 2542 2542 2542 2542 2542 2523 2523 2523 2505 2487 2487 2505 2505 2523 2505 2505 3493 3423 3423 3390 3390 3390 3390 3390 3390 3390 3423 3423 3423 3390 3357 3357 3357 3390 3357 3357 3357 3324 3357 3357 3357 3357 3357 3390 3390 3390 3423 3390 3390 3390 3390 3390 3357 3357 3357 3390 3390 3390 3390 3390 3390 3390 3390 3390 3390 3390 3357 3357 3390 3357 3357 0 0 0 0 0 3201 3201 3201 3201 3201 3201 3231 3262 3262 3293 3293 3324 3293 3357 3390 3390 3390 3390 3390 3423 3293 3293 3293 3262 3293 3293 3324 3324 3324 3293 3293 3293 3293 3293 3293 3293 3293 3293 3293 3293 3231 3201 3201 1060 1060 1063 1060 1053 1053 1050 1050 1047 1047 1044 1044 1044 1044 1044 1044 998 998 998 998 998 998 998 998 1001 1004 1007 1007 1010 1010 1013 1013 1016 1019 1022 1025 1028 1031 1031 1031 1031 1031 1031 1031 1031 1031 1031 1031 1031 1034 1034 1034 1034 1037 1040 1044 1044 1044 1044 1047 1047 1050 1053 1053 1056 1056 1060 1063 1066 1069 1073 1076 1079 1083 1093 1100 1107 1111 1114 1118 1125 1125 1129 0 0 0 0 0 0 0 0 0 0 0 0 0 0 0 0 0 0 0 0 591 591 592 592 592 593 593 593 594 594 594 595 595 595 595 595 596 596 597 597 598 598 599 599 600 600 600 600 601 601 603 603 603 604 605 605 606 606 606 607 607 608 608 609 609 609 610 610 610 611 611 611 612 612 613 614 615 617 617 618 618 618 618 619 619 620 621 621 622 622 622 622 623 623 624 625 625 627 628 628 628 629 630 630 631 631 631 632 634 634 635 635 635 635 636 635 636 637 638 638 638 638 638 638 639 639 641 642 642 642 642 643 643 643 644 648 649 649 649 649 650 650 651 651 653 653 653 654 654 655 655 655 656 658 659 659 659 659 659 659 661 663 663 664 664 664 664 665 667 667 668 668 669 669 669 670 672 673 673 673 674 676 676 677 677 678 678 680 680 681 682 682 684 684 684 684 684 685 685 685 686 688 688 691 691 693 695 695 695 695 0 0 0 0 0 0 0 0 0 0 0 0 0 0 0 0 0 0 0 0 0 0 0 0 0 0 0 0 0 0 0 0 0 0 0 0 0 0 0 0 0 0 0 0 0 0 0 0 3679 3679 3679 3679 3679 3679 3679 3679 3679 3679 3679 3718 3718 3718 3718 3718 3718 3718 3718 3718 3718 3718 3718 3718 3759 3800 3800 3800 3759 3718 3718 3679 3640 3640 3640 3640 3602 3528 3528 3493 3493 3493 3493 3493 3493 3493 3458 3458 3423 3423 3390 3390 3357 3293 3324 3357 3357 3357 3357 3357 3357 3357 3357 3357 3262 3231 3231 3231 3231 3262 3231 3231 3231 3231 3231 3231 3201 3172 3172 3143 3143
    0 0 0 0 0 0 0 0 0 0 0 0 0 0 0 0 0 0 0 0 0 0 0 0 0 0 0 0 0 0 0 0 0 0 0 0 0 0 0 0 0 0 0 0 0 0 0 0 0 0 0 0 0 0 0 0 0 0 0 0 0 0 0 0 0 0 0 0 0 0 0 0 0 0 0 0 0 0 2033 2033 2033 2033 2033 2033 2033 2045 2045 2045 2045 2045 2045 2057 2057 2057 2057 2057 2069 2069 2082 2542 2542 2560 2542 2542 2523 2505 2523 2487 2487 2487 2487 2487 2505 3493 3458 3458 3390 3423 3390 3390 3390 3390 3423 3423 3357 3423 3423 3423 3390 3390 3357 3357 3357 3357 3357 3357 3324 3357 3357 3357 3357 3390 3390 3390 3423 3423 3390 3390 3390 3390 3390 3357 3357 3357 3390 3390 3390 3390 3390 3390 3390 3390 3390 3390 3390 3357 3357 3390 3357 0 0 0 0 0 0 3172 3201 3201 3201 3201 3231 3231 3262 3262 3293 3293 3324 3324 3357 3390 3390 3423 3390 3423 3423 3423 3293 3293 3262 3293 3324 3324 3324 3324 3324 3324 3324 3293 3293 3324 3293 3293 3324 3324 3293 3262 3262 1069 1066 1066 1063 1060 1056 1053 1050 1050 1047 1044 1040 1040 1040 1040 1040 998 998 995 995 995 998 995 995 998 998 1004 1007 1007 1007 1010 1010 1010 1013 1016 1022 1022 1025 1028 1031 1031 1031 1031 1031 1031 1031 1031 1031 1031 1031 1031 1034 1031 1034 1034 1037 1040 1044 1044 1044 1047 1047 1050 1050 1053 1056 1056 1060 1063 1066 1069 1073 1076 1079 1086 1097 1104 1107 1111 1114 1118 1122 1122 1122 0 0 0 0 0 0 0 0 0 0 0 0 0 0 0 0 0 0 0 591 591 591 592 592 592 593 594 594 594 594 595 595 595 595 595 596 596 596 597 598 598 598 599 600 600 601 601 601 601 603 604 603 604 605 605 605 606 607 607 607 608 608 609 609 610 610 611 611 611 611 611 612 612 613 613 613 617 617 618 618 618 618 618 619 620 620 621 621 622 622 622 622 623 624 624 625 627 627 628 628 629 629 630 630 631 631 632 634 634 634 635 635 635 635 636 636 637 637 638 638 638 638 639 639 639 641 641 642 642 643 643 644 643 645 647 647 648 649 649 650 651 651 653 653 653 653 654 654 655 655 655 656 658 658 659 660 659 659 659 660 663 663 664 664 664 665 665 667 668 668 669 669 669 669 670 672 673 673 673 674 674 676 676 677 677 678 680 680 680 681 682 682 684 684 684 684 685 685 685 685 686 688 688 691 691 693 693 693 695 0 0 0 0 0 0 0 0 0 0 0 0 0 0 0 0 0 0 0 0 0 0 0 0 0 0 0 0 0 0 0 0 0 0 0 0 0 0 0 0 0 0 0 0 0 0 0 0 0 3679 3679 3679 3640 3640 3679 3679 3679 3679 3679 3679 3718 3718 3718 3718 3759 3759 3759 3718 3718 3718 3718 3718 3718 3759 3800 3800 3800 3800 3759 3759 3718 3679 3679 3640 3640 3640 3565 3528 3528 3528 3528 3493 3493 3458 3458 3423 3458 3390 3390 3390 3390 3357 3293 3293 3324 3357 3324 3324 3324 3357 3357 3357 3324 3293 3293 3262 3262 3262 3231 3231 3231 3231 3231 3201 3201 3201 3172 3143 3143 3115
    0 0 0 0 0 0 0 0 0 0 0 0 0 0 0 0 0 0 0 0 0 0 0 0 0 0 0 0 0 0 0 0 0 0 0 0 0 0 0 0 0 0 0 0 0 0 0 0 0 0 0 0 0 0 0 0 0 0 0 0 0 0 0 0 0 0 0 0 0 0 0 0 0 0 0 0 0 2021 2033 2021 2021 2033 2033 2033 2033 2045 2045 2045 2045 2045 2045 2045 2057 2045 2057 2057 2057 2069 2069 2560 2560 2580 2560 2542 2523 2505 2505 2487 2487 2487 2487 2487 2505 2487 3423 3390 3390 3390 3390 3390 3390 3390 3390 3390 3357 3357 3423 3423 3390 3390 3390 3357 3390 3357 3357 3357 3357 3357 3357 3357 3357 3357 3390 3390 3390 3390 3390 3390 3390 3390 3390 3390 3357 3357 3357 3357 3390 3390 3390 3390 3390 3390 3390 3390 3357 3357 3357 3357 3357 3324 3324 0 0 0 0 3172 3172 3201 3201 3231 3231 3231 3262 3293 3293 3357 3357 3357 3357 3390 3390 3423 3390 3423 3423 3423 3423 3390 3423 3423 3423 3423 3324 3357 3357 3357 3324 3324 3324 3324 3293 3324 3357 3357 3357 3293 3231 1069 1069 1066 1063 1060 1056 1053 1050 1050 1047 1044 1040 1040 1037 1037 1037 1034 995 995 995 995 995 995 995 998 998 1001 1004 1007 1007 1007 1010 1010 1013 1013 1019 1019 1025 1028 1028 1028 1028 1031 1031 1031 1031 1031 1031 1031 1031 1031 1031 1031 1034 1034 1037 1040 1044 1044 1044 1047 1047 1050 1050 1053 1053 1056 1060 1063 1066 1069 1073 1076 1083 1090 1097 1100 1107 1111 1114 1122 1125 1125 1129 0 0 0 0 0 0 0 0 0 0 0 0 0 0 0 0 0 0 0 591 591 591 592 592 592 593 594 594 594 594 595 595 595 595 596 596 596 596 597 598 598 599 599 600 600 601 601 601 603 603 604 604 604 605 605 606 607 607 608 608 608 609 609 610 610 610 611 611 612 612 611 612 612 613 613 614 617 617 618 618 618 618 619 619 620 620 621 621 622 622 622 622 623 623 624 625 625 627 628 628 629 630 630 631 631 631 632 634 634 634 635 635 635 635 636 636 637 638 639 639 639 639 639 639 639 641 642 642 643 643 644 644 644 645 647 647 648 649 650 650 651 651 653 653 653 654 654 655 655 655 656 656 658 659 660 660 660 659 659 660 663 663 664 664 664 665 665 667 668 668 669 669 669 669 670 672 673 673 674 674 676 676 677 677 678 678 680 680 680 681 682 682 684 684 684 684 685 685 685 685 686 688 688 691 691 692 693 693 695 0 0 0 0 0 0 0 0 0 0 0 0 0 0 0 0 0 0 0 0 0 0 0 0 0 0 0 0 0 0 0 0 0 0 0 0 0 0 0 0 0 0 0 0 0 0 0 0 0 3679 3679 3679 3640 3640 3679 3679 3679 3679 3679 3679 3679 3718 3718 3718 3718 3759 3759 3718 3718 3718 3718 3718 3718 3718 3718 3718 3800 3759 3759 3718 3679 3679 3679 3602 3640 3640 3565 3528 3528 3528 3528 3493 3458 3458 3458 3423 3458 3390 3390 3390 3357 3357 3293 3293 3324 3357 3324 3324 3324 3357 3357 3357 3324 3293 3293 3262 3262 3262 3231 3231 3231 3231 3231 3231 3201 3201 3172 3143 3143 3115
    0 0 0 0 0 0 0 0 0 0 0 0 0 0 0 0 0 0 0 0 0 0 0 0 0 0 0 0 0 0 0 0 0 0 0 0 0 0 0 0 0 0 0 0 0 0 0 0 0 0 0 0 0 0 0 0 0 0 0 0 0 0 0 0 0 0 0 0 0 0 0 0 0 0 0 0 2045 2033 2033 2033 2033 2033 2033 2021 2033 2033 2045 2033 2045 2045 2045 2045 2045 2045 2057 2057 2057 2069 2069 2560 2560 2560 2542 2542 2505 2487 2487 2469 2469 2469 2487 2487 2487 2469 3390 3390 3423 3423 3390 3390 3390 3390 3390 3390 3357 3357 3390 3390 3357 3357 3357 3357 3390 3390 3357 3357 3357 3390 3357 3357 3357 3357 3390 3390 3390 3390 3390 3390 3390 3390 3390 3357 3357 3357 3357 3357 3357 3357 3390 3357 3390 3390 3390 3390 3357 3324 3324 3357 3324 3293 0 3143 3143 3143 0 3172 3172 3201 3201 3231 3231 3262 3293 3293 3357 3357 3390 3390 3390 3390 3390 3423 3390 3390 3423 3423 3423 3423 3423 3423 3423 3423 3357 3357 3357 3357 3357 3324 3357 3324 3324 3324 3357 3357 3390 3324 1073 1073 1073 1066 1063 1060 1056 1053 1047 1047 1044 1044 1040 1037 1037 1037 1034 1034 998 998 995 995 995 995 995 998 998 1001 1004 1007 1007 1007 1010 1010 1010 1013 1016 1019 1022 1025 1025 1028 1028 1028 1031 1031 1031 1031 1031 1031 1031 1031 1031 1031 1034 1034 1037 1040 1044 1044 1044 1047 1047 1050 1050 1053 1053 1056 1060 1063 1066 1069 1076 1079 1086 1093 1097 1104 1107 1111 1114 1118 1122 1125 1125 0 0 0 0 0 0 0 0 0 0 0 0 0 0 0 0 0 0 592 591 591 592 592 592 593 593 594 594 595 595 595 595 595 596 596 596 596 597 598 598 598 599 599 600 600 601 601 601 603 603 604 604 604 605 606 606 607 608 608 608 608 609 609 610 611 610 611 611 612 612 612 612 612 613 614 615 617 617 618 618 618 619 620 620 621 621 621 622 622 622 623 623 623 624 625 625 627 627 628 628 629 630 630 631 631 631 632 634 634 634 635 635 635 636 636 636 638 638 639 639 639 639 639 639 641 641 642 643 643 644 644 645 647 647 647 648 649 649 649 650 651 651 653 653 653 654 654 655 655 656 656 656 658 659 659 659 660 660 660 661 663 663 664 664 664 665 665 668 668 669 669 669 669 669 670 672 673 673 673 674 674 677 678 678 678 680 680 680 681 681 682 682 684 684 684 685 685 685 685 686 688 689 689 691 692 695 695 695 695 0 0 0 0 0 0 0 0 0 0 0 0 0 0 0 0 0 0 0 0 0 0 0 0 0 0 0 0 0 0 0 0 0 0 0 0 0 0 0 0 0 0 0 0 0 0 0 0 0 3640 3640 3718 3718 3679 3679 3679 3679 3679 3679 3679 3679 3718 3718 3718 3718 3759 3759 3759 3718 3718 3718 3718 3718 3718 3718 3718 3718 3759 3718 3718 3640 3640 3679 3602 3640 3640 3565 3565 3679 3528 3528 3493 3493 3493 3458 3458 3458 3423 3423 3390 3390 3357 3293 3324 3324 3357 3357 3324 3357 3357 3357 3357 3324 3293 3293 3262 3262 3262 3231 3231 3231 3231 3231 3201 3201 3172 3172 3143 3143 3115
    0 0 0 0 0 0 0 0 0 0 0 0 0 0 0 0 0 0 0 0 0 0 0 0 0 0 0 0 0 0 0 0 0 0 0 0 0 0 0 0 0 0 0 0 0 0 0 0 0 0 0 0 0 0 0 0 0 0 0 0 0 0 0 0 0 0 0 0 0 0 0 0 0 0 0 0 2021 2021 2021 2021 2021 2021 2021 2021 2033 2033 2033 2033 2045 2045 2045 2045 2045 2045 2057 2045 2045 2045 2542 2560 2560 2560 2542 2523 2505 2487 2469 2469 2469 2469 2469 2469 2469 2469 2469 3390 3390 3390 3390 3390 3390 3390 3357 3423 3357 3357 3357 3390 3357 3357 3357 3357 3390 3390 3357 3390 3390 3390 3357 3357 3357 3390 3390 3390 3390 3390 3390 3390 3390 3390 3357 3357 3357 3357 3357 3357 3357 3357 3357 3357 3357 3390 3357 3357 3357 3357 3324 3324 3324 3293 0 3143 3143 3143 3143 3172 3172 3201 3231 3231 3262 3262 3293 3293 3357 3357 3390 3390 3390 3390 3390 3423 3423 3423 3423 3423 3458 3458 3458 3458 3458 3458 3357 3357 3390 3390 3357 3357 3390 3390 3390 3390 3390 3390 3423 3357 1076 1073 1073 1069 1063 1063 1056 1053 1047 1047 1044 1044 1040 1037 1037 1037 1034 1001 1001 998 998 995 998 998 998 998 998 1001 1004 1007 1007 1007 1010 1010 1010 1013 1016 1019 1022 1025 1025 1028 1028 1028 1031 1031 1031 1031 1031 1031 1031 1031 1031 1031 1034 1034 1037 1040 1044 1044 1044 1047 1047 1050 1050 1053 1053 1056 1060 1063 1063 1069 1076 1083 1086 1093 1097 1104 1107 1111 1114 1122 1122 1125 1125 0 0 0 0 0 0 0 0 0 0 0 0 0 0 0 0 0 0 592 591 591 592 592 592 593 594 594 594 595 595 595 596 596 596 596 596 597 598 598 598 598 599 599 600 600 601 601 601 603 604 604 604 605 605 606 607 607 608 608 609 609 609 610 611 611 611 612 612 612 612 612 612 613 613 614 615 617 617 618 618 618 619 620 621 621 621 622 622 622 622 623 623 623 624 625 627 627 628 628 628 629 630 630 631 631 631 632 634 634 634 635 635 636 636 636 636 638 638 639 639 639 639 639 641 641 642 643 643 644 644 644 645 647 647 648 648 649 649 650 650 651 651 653 653 654 654 655 656 656 656 658 656 658 660 659 660 660 660 661 661 663 663 664 664 664 664 665 668 668 669 669 669 670 670 672 673 673 673 674 674 676 677 678 678 678 680 680 680 681 682 682 684 684 684 684 685 685 685 686 686 689 689 691 692 692 693 695 693 695 0 0 0 0 0 0 0 0 0 0 0 0 0 0 0 0 0 0 0 0 0 0 0 0 0 0 0 0 0 0 0 0 0 0 0 0 0 0 0 0 0 0 0 0 0 0 0 0 0 3718 3718 3679 3718 3679 3718 3718 3718 3718 3718 3718 3718 3718 3718 3718 3759 3759 3759 3759 3718 3718 3718 3718 3718 3718 3718 3718 3679 3718 3718 3679 3640 3640 3640 3602 3602 3602 3565 3565 3565 3565 3528 3528 3493 3493 3493 3458 3458 3423 3423 3390 3390 3357 3324 3357 3357 3357 3357 3357 3357 3357 3357 3357 3324 3293 3293 3262 3262 3262 3231 3231 3231 3231 3231 3201 3201 3172 3172 3143 3143 3115
    0 0 0 0 0 0 0 0 0 0 0 0 0 0 0 0 0 0 0 0 0 0 0 0 0 0 0 0 0 0 0 0 0 0 0 0 0 0 0 0 0 0 0 0 0 0 0 0 0 0 0 0 0 0 0 0 0 0 0 0 0 0 0 0 0 0 0 0 0 0 0 0 0 0 0 0 2009 2009 2021 2021 2021 2021 2021 2021 2033 2033 2033 2033 2045 2045 2045 2045 2045 2045 2045 2045 2045 0 2542 2542 2542 2560 2542 2523 2505 2487 2487 2469 2469 2469 2469 2469 2469 2469 2469 3390 3390 3390 3390 3390 3390 3390 3390 3423 3390 3390 3390 3390 3357 3357 3357 3357 3357 3357 3357 3357 3357 3390 3357 3357 3357 3390 3390 3390 3390 3390 3390 3390 3390 3357 3357 3357 3357 3324 3357 3357 3357 3357 3357 3357 3357 3357 3357 3357 3357 3357 3357 3357 3357 3293 3172 3172 3172 3143 3172 3172 3201 3201 3231 3262 3262 3293 3293 3293 3324 3357 3390 3390 3390 3390 3390 3423 3423 3423 3458 3423 3458 3458 3493 3493 3493 3493 3390 3390 3390 3390 3390 3390 3390 3390 3423 3423 3423 3423 3423 3390 1073 1073 1073 1069 1063 1060 1056 1053 1047 1047 1044 1044 1040 1037 1037 1034 1034 1004 1004 1004 998 998 998 998 998 998 1001 1004 1007 1007 1007 1007 1010 1010 1013 1013 1019 1019 1022 1022 1025 1028 1028 1028 1028 1031 1031 1031 1031 1031 1031 1031 1031 1031 1034 1034 1034 1037 1040 1044 1044 1047 1047 1050 1053 1053 1056 1056 1060 1060 1063 1069 1076 1079 1086 1093 1097 1104 1107 1111 1114 1118 1122 1122 0 0 0 0 0 0 0 0 0 0 0 0 0 0 0 0 0 0 0 592 591 592 592 592 592 593 593 594 594 595 595 596 596 596 596 597 597 597 598 598 598 599 599 599 600 600 601 601 601 603 604 604 604 605 606 606 607 608 608 608 609 609 609 610 611 611 611 612 612 612 612 612 612 613 614 615 615 617 618 618 618 619 620 621 621 622 622 622 622 623 623 624 624 624 625 625 627 627 628 629 629 629 630 630 631 631 631 632 634 634 635 635 635 636 636 636 637 638 639 639 639 639 639 641 641 642 642 643 643 644 644 645 647 647 647 648 648 649 649 650 650 651 651 653 653 653 654 654 656 655 656 656 658 659 659 659 660 660 660 661 663 663 663 664 664 665 665 667 668 668 669 669 669 670 670 672 673 673 673 674 674 674 676 676 677 678 678 680 680 681 682 684 682 684 684 684 685 686 686 688 688 689 691 691 692 693 693 695 695 695 0 0 0 0 0 0 0 0 0 0 0 0 0 0 0 0 0 0 0 0 0 0 0 0 0 0 0 0 0 0 0 0 0 0 0 0 0 0 0 0 0 0 0 0 0 0 0 0 3718 3718 3718 3718 3718 3679 3718 3718 3759 3718 3718 3718 3718 3718 3718 3718 3718 3759 3759 3759 3759 3718 3718 3718 3718 3718 3679 3679 3679 3718 3679 3640 3602 3602 3602 3602 3602 3602 3565 3565 3565 3565 3528 3528 3528 3528 3528 3493 3493 3423 3423 3390 3357 3357 3357 3293 3357 3357 3357 3357 3357 3357 3324 3324 3293 3293 3262 3262 3262 3262 3231 3231 3231 3231 3231 3201 3201 3172 3172 3143 3143 3115
    0 0 0 0 0 0 0 0 0 0 0 0 0 0 0 0 0 0 0 0 0 0 0 0 0 0 0 0 0 0 0 0 0 0 0 0 0 0 0 0 0 0 0 0 0 0 0 0 0 0 0 0 0 0 0 0 0 0 0 0 0 0 0 0 0 0 0 0 0 0 0 0 0 0 0 2009 2009 2009 2009 2009 2021 2021 2021 2021 2033 2033 2033 2033 2045 2033 2045 2045 2045 2045 2045 2045 2045 0 2542 2542 2542 2542 2542 2523 2505 2469 2469 2469 2469 2469 2469 2469 2469 2469 2469 3390 3390 3390 3357 3357 3390 3357 3357 3423 3423 3390 3390 3390 3357 3357 3357 3357 3357 3357 3357 3390 3390 3390 3357 3357 3357 3357 3357 3357 3390 3357 3390 3390 3357 3357 3357 3357 3357 3357 3357 3357 3357 3357 3357 3357 3357 3357 3357 3357 3357 3357 3324 3324 3293 3262 3201 3172 3143 3143 3172 3172 3201 3231 3231 3262 3262 3293 3293 3293 3324 3390 3390 3390 3390 3390 3423 3423 3423 3458 3458 3458 3458 3423 3423 3528 3493 3493 3423 3423 3423 3423 3423 3390 3390 3423 3423 3423 3423 3423 3493 3493 1076 1073 1069 1066 1060 1060 1056 1053 1047 1047 1044 1040 1037 1034 1034 1034 1031 1028 1007 1004 998 998 998 998 998 998 1001 1004 1007 1007 1007 1010 1010 1010 1013 1016 1019 1019 1022 1022 1025 1028 1028 1028 1028 1031 1031 1031 1031 1031 1031 1031 1031 1031 1034 1034 1037 1037 1040 1044 1044 1047 1047 1050 1053 1056 1056 1060 1060 1063 1066 1073 1076 1079 1086 1090 1093 1100 1104 1111 1114 1118 1122 0 0 0 0 0 0 0 0 0 0 0 0 0 0 0 0 0 0 0 0 592 591 592 592 592 592 593 593 594 594 595 595 596 596 596 596 597 597 598 598 598 598 599 599 599 600 600 601 603 603 604 604 604 604 605 606 607 607 608 608 609 609 609 610 611 611 612 612 612 612 612 612 612 613 613 614 615 617 617 618 618 619 619 620 621 621 622 621 622 622 623 623 624 625 625 625 627 627 627 628 629 629 630 630 630 631 631 631 632 634 634 635 635 635 636 636 637 637 638 639 639 639 639 641 641 641 642 642 643 644 644 645 645 647 647 648 648 648 649 649 650 650 651 651 653 653 654 654 655 656 656 656 658 658 659 659 659 660 660 661 663 663 663 663 664 664 665 665 667 668 668 669 669 670 670 672 672 673 673 674 674 674 676 676 677 677 678 680 680 680 681 682 684 684 685 685 686 686 688 688 689 689 691 691 692 692 693 693 695 693 695 0 0 0 0 0 0 0 0 0 0 0 0 0 0 0 0 0 0 0 0 0 0 0 0 0 0 0 0 0 0 0 0 0 0 0 0 0 0 0 0 0 0 0 0 0 0 0 0 3718 3718 3718 3718 3718 3718 3718 3759 3759 3759 3718 3718 3718 3718 3718 3718 3718 3718 3718 3759 3759 3718 3718 3718 3718 3718 3679 3679 3679 3718 3679 3602 3602 3565 3602 3602 3602 3602 3602 3565 3565 3565 3565 3528 3528 3528 3528 3493 3493 3458 3423 3423 3390 3390 3357 3357 3357 3357 3357 3324 3324 3324 3324 3324 3293 3293 3262 3262 3262 3262 3231 3231 3231 3231 3231 3201 3201 3172 3143 3143 3115 3115
    0 0 0 0 0 0 0 0 0 0 0 0 0 0 0 0 0 0 0 0 0 0 0 0 0 0 0 0 0 0 0 0 0 0 0 0 0 0 0 0 0 0 0 0 0 0 0 0 0 0 0 0 0 0 0 0 0 0 0 0 0 0 0 0 0 0 0 0 0 0 0 0 0 0 0 2009 2009 2009 2009 2021 2021 2021 2021 2021 2033 2033 2033 2033 2033 2033 2045 2045 2045 2045 2033 2033 0 0 2542 2542 2542 2542 2523 2523 2487 2469 2469 2469 2469 2469 2469 2469 2469 2469 3357 3357 3357 3390 3390 3390 3390 3390 3390 3423 3390 3357 3357 3324 3357 3324 3357 3357 3357 3357 3357 3390 3390 3390 3390 3357 3357 3390 3357 3357 3357 3357 3357 3357 3357 3357 3357 3357 3357 3357 3357 3357 3357 3357 3357 3357 3357 3357 3357 3357 3357 3357 3357 3324 3324 3231 3172 3172 3143 3143 3143 3172 3201 3231 3262 3262 3293 3293 3324 3324 3324 3324 3390 3390 3390 3390 3423 3423 3423 3423 3458 3423 3423 3423 3493 3493 3493 3493 3423 3423 3423 3423 3423 3423 3423 3423 3423 3423 3423 3423 3493 3493 3528 3528 1069 1066 1060 1056 1053 1053 1047 1044 1040 1040 1037 1034 1034 1031 1031 1025 1016 1004 1004 1001 1004 1004 1004 1004 1007 1004 1007 1007 1010 1010 1010 1013 1013 1016 1019 1019 1022 1022 1025 1028 1028 1028 1028 1031 1031 1031 1031 1031 1031 1031 1031 1031 1034 1034 1037 1037 1040 1044 1044 1047 1047 1050 1053 1056 1056 1060 1060 1063 1066 1069 1073 1076 1083 1086 1093 1097 1100 1107 1114 0 0 0 0 0 0 0 0 0 0 0 0 0 0 0 0 0 0 0 0 0 0 592 591 592 592 592 592 593 593 594 594 595 595 596 596 596 596 597 597 598 598 599 599 599 599 599 600 600 601 603 603 604 604 605 605 605 606 607 607 608 608 609 609 609 610 611 611 612 612 612 612 613 613 613 613 614 614 615 617 617 618 618 619 619 620 621 621 622 622 622 623 623 624 624 625 625 625 627 627 628 629 630 630 630 630 630 631 631 632 632 634 635 635 635 635 636 637 638 638 639 639 639 639 639 641 641 642 642 643 643 644 645 645 647 647 648 648 648 649 649 650 650 651 653 651 653 653 654 655 655 656 656 658 658 659 660 660 660 661 661 663 663 663 663 664 664 664 665 665 667 668 668 669 669 670 670 672 673 673 674 674 676 676 677 677 677 677 678 680 680 680 681 684 684 685 685 685 686 688 688 689 689 689 691 691 692 692 693 693 695 695 0 0 0 0 0 0 0 0 0 0 0 0 0 0 0 0 0 0 0 0 0 0 0 0 0 0 0 0 0 0 0 0 0 0 0 0 0 0 0 0 0 0 0 0 0 0 0 0 0 3718 3718 3718 3718 3718 3718 3718 3759 3759 3759 3718 3718 3718 3718 3718 3718 3718 3718 3718 3759 3759 3759 3718 3759 3718 3718 3679 3679 3679 3679 3640 3640 3640 3565 3640 3640 3602 3602 3565 3565 3565 3565 3565 3565 3565 3528 3493 3493 3493 3458 3423 3390 3390 3390 3357 3324 3324 3293 3357 3324 3324 3324 3324 3324 3293 3293 3262 3262 3262 3262 3231 3231 3231 3231 3231 3201 3201 3172 3172 3143 3143 3115
    0 0 0 0 0 0 0 0 0 0 0 0 0 0 0 0 0 0 0 0 0 0 0 0 0 0 0 0 0 0 0 0 0 0 0 0 0 0 0 0 0 0 0 0 0 0 0 0 0 0 0 0 0 0 0 0 0 0 0 0 0 0 0 0 0 0 0 0 0 0 0 0 0 0 0 2009 2009 2009 2009 2009 2009 2021 2021 2021 2021 2033 2033 2033 2033 2033 2045 2045 2045 2045 2045 2045 2045 2045 2523 2523 2523 2523 2523 2505 2487 2469 2469 2469 2469 2469 2469 2469 2487 2487 3324 3324 3357 3423 3423 3390 3423 3390 3423 3423 3390 3390 3357 3357 3357 3324 3357 3357 3357 3357 3390 3390 3390 3390 3390 3357 3357 3357 3357 3324 3324 3324 3324 3324 3357 3357 3357 3357 3357 3357 3357 3357 3357 3357 3357 3357 3357 3357 3357 3357 3357 3357 3357 3324 3324 3231 3172 3143 3143 3143 3143 3172 3231 3231 3262 3262 3293 3324 3324 3324 3324 3324 3357 3390 3390 3390 3390 3423 3423 3423 3423 3423 3423 3423 3423 3493 3493 3423 3423 3423 3423 3423 3423 3423 3423 3423 3423 3423 3423 3423 3493 3493 3528 3528 3528 1066 1060 1056 1053 1050 1047 1044 1040 1040 1037 1034 1031 1031 1031 1025 1022 1007 1004 1004 1007 1007 1007 1004 1007 1007 1010 1010 1010 1010 1013 1016 1016 1019 1016 1019 1022 1022 1025 1025 1028 1028 1028 1028 1028 1031 1031 1031 1031 1031 1031 1031 1034 1034 1037 1040 1040 1044 1044 1047 1047 1050 1053 1056 1056 1060 1063 1063 1066 1069 1073 1076 1086 1090 1093 1097 1100 1104 0 0 0 0 0 0 0 0 0 0 0 0 0 0 0 0 0 0 0 0 0 0 0 592 592 592 592 592 592 593 593 594 594 595 595 596 596 596 596 597 597 598 598 598 599 599 599 600 600 601 603 603 604 604 604 605 605 605 606 607 607 608 608 609 610 610 610 611 612 612 612 612 612 613 613 613 613 614 615 615 617 618 618 618 619 620 621 621 621 622 622 622 623 623 624 624 625 625 627 627 628 629 629 630 630 630 630 630 631 631 632 634 634 634 635 636 635 636 637 639 638 639 639 639 639 641 641 642 642 643 643 644 644 645 647 647 648 648 648 649 649 650 650 650 651 651 651 653 653 654 654 656 656 656 658 658 659 660 660 660 661 663 663 663 663 664 664 664 665 667 667 667 668 668 669 669 669 670 670 673 673 674 674 676 676 676 678 678 678 680 680 680 681 684 684 684 685 685 686 688 688 689 689 691 691 691 692 692 693 693 695 695 695 0 0 0 0 0 0 0 0 0 0 0 0 0 0 0 0 0 0 0 0 0 0 0 0 0 0 0 0 0 0 0 0 0 0 0 0 0 0 0 0 0 0 0 0 0 0 0 0 0 3679 3679 3718 3718 3718 3718 3718 3718 3759 3759 3718 3718 3679 3718 3679 3679 3718 3718 3718 3718 3759 3759 3718 3718 3718 3718 3679 3679 3679 3679 3640 3602 3602 3602 3602 3640 3602 3640 3602 3602 3602 3565 3565 3565 3565 3528 3493 3493 3493 3423 3423 3390 3390 3390 3390 3357 3324 3324 3357 3357 3324 3324 3324 3293 3262 3262 3262 3262 3262 3262 3231 3231 3231 3231 3231 3201 3201 3172 3172 3143 3143 3115</data></dframe>
</opencv_storage>
